# .PCD v0.7 - Point Cloud Data file format
VERSION 0.7
FIELDS x y z
SIZE 4 4 4
TYPE F F F
COUNT 1 1 1
WIDTH 1000
HEIGHT 1
VIEWPOINT 0 0 0 1 0 0 0
POINTS 1000
DATA ascii
215.08806 100.96203 200.4734
204.40065 233.38173 50.573151
85.817024 196.66678 71.110329
141.81631 122.21365 160.99095
93.384827 131.43063 243.77081
234.54594 162.7422 183.62802
36.250256 155.38403 4.1729465
62.179012 35.131283 205.86925
40.109848 102.64176 33.226353
27.855053 255.72467 55.873768
131.3107 214.81273 156.8358
75.784096 163.21338 134.21751
126.35725 249.03041 74.8843
197.46758 134.84671 197.09795
102.45853 228.23154 72.528572
90.22934 206.77748 235.27078
17.857351 243.02773 134.65482
22.030296 49.206745 169.78609
227.89955 89.316589 16.427858
5.1259003 117.17165 16.152534
60.999668 248.48233 230.96527
217.83546 68.266434 138.17865
96.052986 194.62367 131.20906
170.93729 136.09125 10.055768
112.03522 238.54977 238.28731
184.5638 72.779114 189.06479
163.83458 90.636459 176.09251
42.489388 112.66676 225.29926
212.27548 84.566307 58.615852
228.70334 89.692207 175.78749
244.85587 150.69188 168.26984
219.82114 112.52734 236.53627
101.99979 208.58032 175.15994
233.20885 123.51761 55.25119
243.2646 235.55283 37.800964
225.55191 164.11664 110.58008
158.6167 71.95121 201.21654
78.709213 114.4406 57.883297
48.008476 70.71608 142.4496
106.62433 43.419415 232.1418
26.411823 32.275288 126.83368
194.68166 252.09642 239.36102
175.21793 98.096214 191.94135
94.377869 75.305054 59.458954
149.62906 62.56966 39.011787
187.43002 32.121574 203.12842
42.010094 190.73828 19.079628
243.22664 13.447491 133.52022
45.109928 61.455967 204.2363
187.55952 168.08029 247.65572
163.70134 194.49213 23.931002
34.535019 133.17378 20.027428
17.896038 52.391701 118.12364
209.83739 146.76956 193.4287
13.296337 40.398624 255.99835
52.308125 227.82864 32.11993
255.43654 13.838739 222.8582
18.516172 1.0653719 236.30569
152.03639 46.175301 41.761665
100.2727 233.73483 209.84196
91.928413 141.43617 148.33408
115.85941 175.97118 25.507856
135.88684 193.86722 77.899559
254.01048 147.70461 224.66913
191.43918 161.00095 9.0677519
191.43753 213.30907 236.89639
223.55746 212.74561 250.73514
190.41566 231.26178 251.80051
170.72136 127.29818 41.975807
212.48303 227.57088 19.710638
166.32498 63.499294 161.1468
58.659065 179.3587 81.117989
84.166924 59.245556 18.985209
162.06648 57.256042 166.68982
130.73561 248.69522 71.690758
139.80336 184.13275 28.999823
120.69976 151.69022 241.74544
115.4349 86.105888 217.00722
111.2354 0.8272537 88.305397
153.21121 213.31029 59.876278
172.92184 123.63527 123.37557
78.068657 182.29434 46.734283
159.18665 10.461262 105.97984
178.17184 172.52774 163.23589
88.861664 47.263351 155.93111
160.55241 187.06671 84.063858
189.55225 51.766472 235.75407
175.29767 167.20137 65.859962
136.30489 22.436769 66.687218
224.61029 175.64798 23.997501
28.486561 92.569832 147.63277
151.86214 170.63849 73.927109
198.59642 73.825127 84.388374
48.576252 251.99698 0.91611505
211.81213 84.858643 48.179466
111.74323 245.41106 235.24619
195.80708 178.9633 31.01265
175.56116 98.260979 198.21402
241.42113 234.56587 220.65079
52.108345 203.17615 140.29877
76.105843 231.66272 232.86859
223.73862 127.52484 147.50708
41.665726 70.121262 221.33221
126.0541 118.69751 217.32919
126.97021 74.509644 46.187836
175.14967 186.25287 35.5989
154.39586 126.05996 214.56219
185.40851 45.621124 56.823177
127.62252 31.042248 35.389046
92.273308 83.150589 238.5652
232.57207 159.25644 214.22791
209.44067 126.99505 85.752754
100.94775 168.66078 155.87401
66.279968 38.714874 18.571522
27.609159 165.68509 93.081161
73.796997 84.83477 23.334036
109.3959 239.23064 149.394
67.958099 168.63914 195.01512
124.78128 40.261662 226.05737
160.17032 132.53497 53.207958
142.73552 109.10704 212.4644
100.96342 62.54771 83.45945
186.71617 163.49547 252.12022
86.590187 229.77542 34.835102
105.16171 1.3845884 200.52019
198.24287 75.181587 29.354959
221.57692 184.57748 12.585589
114.97091 252.53558 181.22473
53.986027 121.31686 221.48639
24.043394 25.487181 98.021362
77.25135 168.2227 207.1284
33.715748 13.186121 13.676107
117.17519 199.9023 177.17157
113.29542 30.492489 150.94699
148.13052 135.65421 152.33159
92.650711 77.897079 227.51317
122.00567 43.473988 156.09065
134.59126 158.4449 152.62624
59.81599 212.43092 17.943092
25.30238 236.47432 43.430271
123.32374 57.725674 211.65297
74.452141 91.441422 224.8391
88.128242 208.61662 168.74139
9.2998142 65.912041 199.23387
160.24681 214.04256 78.888077
56.578396 50.693272 156.78516
28.091568 172.69894 200.25914
184.18222 51.290203 102.70404
80.808456 111.10619 59.134964
98.751549 136.40857 39.609283
142.18182 3.732312 97.334953
97.834793 78.184448 188.77638
66.673882 166.3127 141.39299
235.41527 175.6125 207.30504
178.64914 79.859322 165.3476
1.5372218 136.43771 216.04086
158.32237 164.52928 132.73981
102.58151 92.71151 184.03001
205.28555 173.51996 39.136204
8.4205189 16.271513 175.54478
48.0298 158.45334 179.27708
145.36476 0.28812277 1.4615403
78.141136 66.962006 167.77423
219.53413 46.37727 87.386742
170.83917 225.02641 167.24606
80.186768 226.56364 47.683784
40.227631 128.88602 212.21307
172.96744 231.46753 48.92458
100.99745 180.75308 222.44455
140.13365 189.1736 238.71606
59.678436 237.2034 141.16939
238.95552 126.56816 141.45752
240.41707 204.7093 208.41951
152.1913 168.24344 254.79678
239.57805 83.082603 223.8232
150.82411 163.26936 194.38684
198.50789 203.49699 67.27285
154.72096 120.46444 42.740379
203.64554 221.46188 223.49347
170.09009 105.59554 156.66707
152.80615 165.27399 137.87047
37.975536 148.22951 8.4386292
179.43304 132.64658 213.14793
131.85257 28.837873 125.39136
130.64935 12.415918 208.47397
98.472549 163.24004 115.74333
36.85939 105.74792 63.24033
104.13224 4.4688902 183.70477
146.87262 208.11444 149.16666
114.36609 122.20452 254.76221
15.033151 19.01067 164.03618
152.90363 56.986206 56.265686
161.34225 236.41925 188.91226
118.49017 112.27182 217.75014
243.88153 242.92117 230.16605
196.3555 85.393723 137.40608
56.098831 122.25311 243.15401
119.33916 226.38536 247.62289
47.04393 117.25798 199.73734
196.21059 231.62407 65.941856
194.97278 246.65721 84.952522
103.00896 143.56084 141.93874
159.27466 48.903084 122.35799
92.186913 167.39326 234.62981
53.937038 155.2748 221.55098
28.103088 95.630295 50.944698
165.50917 151.72913 173.19781
152.66318 15.068286 143.58318
144.28606 62.112213 4.8411531
88.023392 2.3227994 236.46523
153.96524 197.29558 227.12244
238.91777 44.30455 114.68327
124.8565 203.57921 163.58635
247.21448 39.766113 74.979614
225.84428 93.703156 230.25441
191.39526 121.80624 69.884705
242.33997 31.315409 221.61383
159.53778 183.97858 236.68211
47.120953 72.264641 42.794331
51.962105 160.28804 45.11713
32.427326 58.253281 242.41272
3.5497618 41.171051 30.717266
118.23303 166.02756 234.29646
25.819386 157.24203 18.062584
100.799 127.08633 111.76574
75.053406 62.481594 233.57198
144.93811 48.82156 8.8873873
110.55194 208.35934 192.86597
91.234055 255.48029 9.1306086
134.02838 51.442398 169.41864
179.14551 83.869728 227.67192
165.55823 87.419487 12.842978
196.2755 205.65253 178.87053
174.57196 231.47191 80.112564
192.63455 76.270905 207.1989
48.400284 151.32431 13.680486
25.972263 40.262424 62.502045
34.85965 150.81436 14.861384
227.72562 242.04842 14.341678
236.85623 120.07681 65.784081
150.27487 43.222313 149.65381
121.94679 208.78055 237.07329
134.78978 149.05603 186.72581
57.660305 67.627998 162.19772
137.77287 4.2625489 238.46863
88.971764 52.662834 133.79294
102.65225 78.635094 174.05536
165.1543 113.49475 68.86972
180.01569 85.220367 54.91814
194.35736 66.076591 174.99495
4.1414337 216.35146 218.21725
153.79524 82.298248 170.9978
134.86853 217.08803 64.053841
65.594337 18.748329 131.68184
227.79205 156.52119 135.94438
210.26068 245.49297 188.60722
88.053619 92.14521 11.242318
6.1089792 1.299508 124.73707
74.978706 181.31519 209.95743
129.89685 119.67255 20.034018
48.891788 123.81398 236.38547
11.109046 21.609215 62.683727
182.10684 156.47774 23.771751
246.16069 222.07208 42.520081
121.84252 193.86414 199.04128
1.7869095 148.12482 188.53424
190.39413 236.17844 24.679455
201.63644 242.28741 25.978962
70.373512 61.266121 207.29414
24.330944 191.16296 70.96669
44.36496 240.05475 194.78067
24.750435 251.1638 216.38989
87.434158 177.27065 116.86763
111.20591 167.43134 82.939713
153.726 33.273853 20.803848
96.767273 35.06076 168.92867
29.301512 225.4549 149.1071
53.980968 171.09134 135.39452
79.95993 241.46486 196.66064
31.25408 9.7957983 131.82361
102.22077 54.160759 115.87836
41.001446 78.911194 111.04215
1.3913319 166.34535 32.312801
118.25896 21.55127 199.74413
201.19867 175.27727 233.01799
222.00252 16.044531 12.078747
134.93118 45.346043 237.53365
28.038294 99.327011 152.62498
163.43282 179.28694 138.08983
104.09345 210.54102 147.88564
235.91705 56.761795 202.04639
95.795418 97.763237 24.957586
206.83757 99.154572 191.30295
239.15038 217.41353 212.85422
182.8945 162.6122 132.13147
159.91249 128.61473 148.17601
171.99124 7.5459132 193.52205
153.52487 35.584206 36.849056
50.149857 199.01703 216.136
188.23969 47.110474 170.67702
80.12532 27.027533 227.43881
26.171717 122.82294 69.202049
51.129303 73.660515 168.35661
242.43225 56.81089 129.77016
199.28645 239.7054 36.382355
75.417931 143.61789 164.99709
223.59393 59.609119 172.543
161.11598 213.13399 208.1272
197.96504 7.2838497 151.14423
158.10104 195.52354 198.2547
72.778053 19.648865 225.28223
44.216866 45.82058 92.105179
113.41891 96.949883 165.7657
25.775534 83.382133 222.57658
155.54568 26.668591 206.28198
191.92804 102.08652 93.899864
100.92512 69.680458 153.50897
17.468113 230.79645 110.64297
225.59531 172.76149 117.92682
120.73953 74.862526 57.450363
62.994228 147.64058 77.099228
32.276459 191.85745 122.91981
124.38164 49.276363 219.86969
34.147331 75.051895 47.251823
0.72391522 230.59758 73.92041
207.00589 166.52562 176.00694
44.905754 11.450745 245.68739
198.41473 28.918858 220.48384
53.057709 254.51418 137.24533
170.98453 119.2537 212.10786
228.43489 182.24792 103.74844
49.534122 214.52438 39.605888
172.45393 82.906021 88.882256
136.32362 117.05335 163.93416
183.57544 117.77727 138.53174
1.4958571 68.783165 49.057358
177.50279 113.68892 60.508102
167.19019 56.103653 89.426964
131.67403 109.16136 87.941132
12.919364 24.145889 207.19482
225.02722 252.58078 133.44276
72.775665 46.114902 91.967148
112.38155 218.56883 174.87317
201.26381 98.892456 35.926525
109.19796 26.467899 153.7038
247.72969 27.963757 222.48695
40.787052 205.46655 80.175873
101.29516 116.65674 136.27953
190.72212 248.33078 245.44089
22.663246 5.2501383 13.586773
229.85808 230.27736 10.167556
107.30083 47.053024 56.282459
199.26799 159.43457 18.851292
118.14116 104.69838 117.74374
154.06769 213.89633 144.21164
51.771477 205.62604 172.1754
18.258434 246.41309 121.64195
98.434303 91.708237 238.29869
234.71384 26.430355 230.62947
224.15471 49.093601 235.87961
237.74149 22.951677 210.15697
247.90904 130.25252 1.2099873
48.191502 73.5205 160.64456
67.042793 191.66167 9.3429441
184.78654 89.729347 223.23929
72.998192 141.50082 172.86531
245.1736 159.75926 163.2784
110.81554 2.1935654 254.98663
93.114235 236.90739 25.41699
67.743698 205.06212 74.51059
47.623306 186.8036 97.462265
1.7802703 178.71265 227.71478
2.9902577 226.90414 45.235287
163.63483 37.946945 236.89694
172.97777 222.73349 70.626297
140.21704 39.731678 212.12712
57.082359 28.90527 115.88638
220.36076 139.72081 118.07994
219.3474 232.83505 98.987335
244.76439 44.578751 48.04945
63.274975 92.202057 234.85306
160.73724 93.98233 157.5657
132.45203 96.972588 128.46985
177.68732 4.6074057 166.41679
158.58426 177.58517 133.15028
229.21056 61.802216 172.88196
185.33768 118.88457 201.78723
45.224045 83.245338 85.508041
163.30399 46.592731 62.343086
6.2913265 35.357117 106.92184
54.340778 98.632088 199.1239
33.193829 3.3693347 37.106224
190.75952 135.82137 134.07881
63.229374 57.508675 138.68622
229.64616 216.09293 60.271385
106.79644 189.30348 122.0736
23.678396 118.64115 240.95818
225.46562 163.8652 68.203514
54.97366 71.169189 114.79625
117.31675 77.460518 150.15337
224.23859 131.8013 248.78545
167.36249 164.99512 252.15479
204.4687 99.754654 131.97615
82.547516 162.98402 189.48482
221.23373 136.63019 149.57776
25.505112 243.42664 82.881241
147.57872 11.105026 201.5224
132.5369 236.57065 109.3876
200.7404 35.544308 180.55678
59.536655 152.86105 2.0173016
209.69002 121.09965 133.81859
202.47546 32.462132 42.813721
198.63025 236.93083 142.56837
74.606407 63.478352 49.552399
8.0912275 28.71208 186.18259
157.66898 54.217194 173.60921
240.55022 201.7959 184.71423
186.07262 78.332794 165.28488
39.460213 23.073204 200.82919
220.017 82.609856 97.690254
222.0343 36.299873 218.7899
99.852898 238.77534 251.25203
142.66661 181.40559 232.18288
29.234987 0.01200068 39.661224
78.787384 8.1032276 68.373306
8.9699697 165.77222 122.59049
182.57918 150.32243 68.386398
111.29343 80.39505 146.71919
20.578314 119.85526 169.7924
221.40752 83.872261 252.40225
63.097767 49.906563 32.702133
25.887672 149.75946 15.477472
21.139706 36.426071 196.88307
253.32257 65.661064 196.89507
36.983799 144.44844 204.99829
105.3571 153.41841 114.77051
227.9476 79.997597 9.0929394
40.333996 191.29103 89.487991
187.05319 211.86934 209.34325
100.8456 177.27686 37.215515
97.247856 240.37462 87.122078
129.94998 10.262289 236.88153
145.42746 31.401995 17.307604
86.310524 28.724569 82.968666
27.205595 65.708366 227.41711
232.20389 171.06548 124.83553
90.974396 143.01306 204.83313
100.06734 183.34706 140.12415
189.55533 114.40026 95.993484
142.89857 215.24585 17.270338
180.11409 56.493706 1.6449544
11.236168 186.4437 11.907244
248.11771 75.871147 43.309238
9.4253044 162.18167 72.033806
92.393967 189.38727 137.74217
63.811081 165.59116 52.807644
188.64661 0.56556022 195.82071
137.47974 100.6329 123.16778
21.603884 34.188225 237.56804
117.59737 177.08681 196.81389
134.86771 101.2009 253.3076
136.51266 112.43707 183.7513
148.41991 104.55477 3.6224396
191.72914 113.98007 165.80411
7.7629514 206.37404 99.191383
145.50513 14.185124 8.782546
198.31277 202.83173 9.3481064
138.13348 84.311462 109.981
5.3012629 105.91535 144.16924
242.86929 223.51273 65.256042
183.68318 102.38043 166.45694
180.99078 238.8931 22.894009
108.74207 131.313 127.44878
112.36452 67.042145 241.42885
22.168631 74.805099 191.80289
121.36002 220.31023 205.98802
130.14256 162.623 152.81975
139.49066 44.756481 237.13121
249.47168 50.057747 87.046562
137.6409 36.927044 54.559284
202.89694 220.61023 156.93971
113.35388 145.60101 139.83281
136.24789 254.34309 15.145808
7.6966701 110.70761 82.187958
249.12552 132.87624 156.99306
184.92842 254.23625 121.30328
134.91643 128.37881 27.926271
31.736183 11.869488 72.682755
12.867398 5.3411627 122.7405
99.913963 142.98207 159.66754
154.47325 89.879013 124.27778
55.412956 203.23289 13.878795
195.24576 83.480789 12.221889
210.39157 91.17746 122.9295
36.579529 84.302986 255.80574
193.57259 13.231399 254.04199
58.875854 148.14783 126.42082
86.802124 179.88402 138.29031
159.48488 192.75142 143.63147
26.22538 36.665375 30.613539
185.89293 191.13863 120.49255
54.170696 246.55157 67.725449
68.049492 185.79735 151.20624
80.271385 140.18892 242.38371
203.20088 176.76845 70.686691
203.00662 114.34103 83.918091
201.04863 173.21687 232.06592
71.469444 4.0190053 155.94994
209.75975 163.50389 92.701355
97.39122 189.72926 129.36673
128.00476 119.62218 64.505356
248.49731 173.79288 55.056931
60.222767 241.84238 240.85428
211.42902 66.113762 125.04319
197.81271 13.314642 45.811638
12.499408 216.32127 160.15266
96.417496 161.36989 77.369545
72.483421 232.83934 81.38855
228.43336 186.59909 244.89244
65.134712 27.990311 178.6217
194.50145 155.99507 42.243885
3.0067959 148.49239 216.03677
58.063728 208.71515 201.87915
42.918003 164.14417 11.992906
167.9612 105.95689 25.307549
213.77283 118.45629 241.62881
117.9255 214.87379 146.9987
195.29504 31.357208 123.83804
20.683588 3.790565 54.437138
9.5760221 68.925278 82.427444
188.19772 7.4267211 238.42252
230.4416 10.433517 130.9149
190.47838 68.497246 83.630058
136.35753 111.41525 247.77423
148.35043 23.376442 97.73111
173.65797 237.14928 216.18741
159.28679 99.074776 175.06119
50.285503 38.369816 206.4184
174.12355 59.053406 210.20897
228.56068 68.629425 23.134243
54.988132 0.82714796 30.560963
37.410652 231.26875 40.99448
168.32556 165.74713 109.49172
251.95563 46.104652 220.90697
243.72984 194.45508 244.28342
85.46096 112.11306 225.43269
45.648365 15.399853 68.507469
220.70955 65.685356 106.87728
171.12796 239.8089 165.93069
125.33692 212.36958 234.56012
148.47116 11.357718 235.38727
179.03212 48.768372 210.65602
220.02661 217.09393 120.40314
73.518333 213.04955 166.5078
38.425304 200.7794 104.96288
26.708719 30.24036 217.07594
252.14142 75.888725 232.4758
64.64888 40.598282 42.161152
171.52617 211.72624 25.970057
81.456848 81.063156 238.33965
60.016964 229.53432 249.69736
39.404228 152.56645 42.465733
250.06024 116.59306 3.5596604
114.46339 190.11139 216.60921
24.971195 228.53668 161.38861
129.93408 255.24541 191.62897
91.010025 251.38683 11.517698
67.485825 60.035698 52.115982
109.64698 231.56186 7.8422179
135.61703 57.018711 88.905373
117.95668 117.03568 62.439697
111.65404 156.43991 215.00615
154.11977 150.50015 75.599197
157.67943 8.9635439 9.7105808
118.28864 33.934738 238.24727
23.677254 163.86882 237.49268
215.30623 254.87885 232.8795
226.82393 66.36467 36.915199
22.939905 176.01164 12.47706
30.782124 55.628685 69.495773
119.6875 173.58536 186.53145
182.1272 29.239403 86.971359
141.13335 183.35918 237.47151
216.73254 85.038605 246.43504
226.44312 203.32724 24.369789
208.69038 227.0045 188.2386
190.18306 186.31073 187.11745
167.06256 157.13466 253.48212
203.97777 180.07455 173.49377
216.45482 210.85669 229.12245
29.950598 74.544182 146.70782
216.48206 0.6713798 175.94722
47.453403 141.80472 103.3064
28.924911 102.53725 188.345
19.359962 72.980377 135.67224
43.729752 25.670763 106.67674
231.96835 215.85384 36.987473
163.08582 126.9164 194.12213
160.56793 74.894157 118.19669
78.061714 35.348984 73.053368
51.18417 65.299583 147.59755
197.89198 25.781631 148.26894
117.83921 73.235039 34.07365
221.1456 102.15995 136.6109
153.4906 121.51991 209.59128
33.162849 165.24966 235.26205
139.8396 141.21802 195.11588
176.82707 48.303837 66.032272
114.9492 208.87177 140.92644
233.14589 30.933483 176.27542
50.199249 82.117653 241.575
197.7968 24.00964 11.356634
90.065735 141.84885 84.591675
124.13938 106.99446 186.75162
4.7502923 4.4850645 52.27153
214.34158 37.647915 217.52119
193.60362 177.48752 102.73921
132.7195 98.314583 151.04305
198.75177 213.26378 103.91482
83.678207 190.40967 134.8483
3.9536304 240.60892 216.96596
245.52864 182.40572 240.9756
0.88526833 16.471445 126.82445
85.476936 140.61082 233.81891
16.228559 145.36111 238.30397
68.500092 103.7027 19.951885
30.02128 41.30632 197.43939
132.7605 174.02582 39.753979
27.803543 116.7776 253.01776
131.71837 200.45581 187.42741
10.566668 204.40944 172.03633
227.53262 193.93806 98.442039
212.50822 194.82333 114.91348
83.332664 24.30028 255.52432
61.151569 40.528839 144.88544
43.45554 109.02893 248.58813
63.407425 139.0502 33.894455
4.8468227 15.810701 207.92027
44.600803 43.614246 68.697876
41.618561 175.33261 13.153683
229.04597 185.89928 217.56313
145.08231 157.4319 155.50119
243.52435 113.94012 94.324532
102.43784 197.27278 118.62481
101.96215 2.4243541 159.15366
246.8476 45.879894 12.182578
239.43573 109.28732 151.23279
17.330181 114.13414 167.04349
225.25046 158.73494 210.65773
37.948334 200.3535 129.99034
51.102016 173.39948 59.889618
12.665137 62.481789 217.32152
168.16634 50.006138 75.261635
6.4908624 152.44397 16.534418
125.11568 254.40613 18.958773
28.269325 245.25371 64.838669
40.451904 228.68944 174.12599
191.68469 246.01961 32.260128
102.72818 215.27008 190.99507
57.38591 253.21841 135.34857
187.37625 48.320423 52.748058
247.26587 60.985561 115.22985
208.58739 229.15189 165.23598
27.84902 235.64275 61.679958
44.383438 104.75843 60.086079
63.342209 133.02776 49.33979
128.18088 173.47966 22.029224
46.306862 109.16434 12.048841
78.566994 211.89252 227.31891
13.562064 13.278433 224.53732
148.91064 200.65468 16.857744
201.65869 191.92055 77.843307
60.888546 144.50793 50.995193
226.12453 172.35696 30.637945
31.804485 216.7404 135.39638
91.890564 24.082605 12.424126
141.23036 152.26349 185.90378
163.25958 198.57034 39.068127
175.30843 21.137339 250.96065
146.62733 34.699402 8.2390842
115.16466 183.61005 208.89377
132.0224 129.26874 144.81432
209.86571 190.15729 33.322258
4.8608994 160.28181 205.67921
35.498844 192.0863 166.4196
170.89522 27.976868 190.50221
183.31935 169.20723 86.765701
113.22313 76.466805 29.336044
152.29126 251.77522 50.473385
147.25191 142.40256 85.172791
155.49098 1.5672195 12.78283
108.38476 133.58961 142.05157
253.19908 87.455322 76.208855
30.521334 92.316223 236.49068
236.20055 127.81507 172.57698
146.62016 42.710289 200.55385
81.122368 226.02963 113.76106
167.88806 83.252762 190.22787
197.22412 235.54401 186.0031
247.69749 126.79591 72.405663
76.870285 26.286905 73.972878
89.653114 134.67166 207.5625
231.70468 131.87074 39.017826
51.913544 162.39207 131.33405
32.404217 142.59262 3.149123
204.98119 33.212776 45.859413
149.53503 114.33514 15.889046
7.2960978 26.223213 99.141808
197.52397 223.44733 78.685814
127.52707 215.14482 205.48174
199.93272 36.01511 231.76863
17.905605 125.66822 110.4403
225.46811 101.37291 242.31104
8.4859324 153.28645 148.70311
139.81998 185.69067 35.295727
142.9691 134.67186 68.508499
188.82852 28.206892 182.84364
204.71756 35.502991 209.06686
47.859371 233.02696 176.51419
126.54519 104.55402 135.65901
76.026917 48.486748 171.67412
51.795559 66.392357 41.342342
162.23586 35.860462 142.71526
148.54689 44.346394 40.001705
41.25 184.16638 225.69237
76.545731 71.135483 104.36423
145.05423 3.9640045 132.57112
71.897873 208.68156 168.07411
24.964735 0.54094028 145.10107
201.47893 127.08613 249.65509
81.137932 203.11305 42.141846
252.81206 254.9086 108.5342
38.154392 161.14445 144.39467
180.86964 53.691357 188.74106
220.87135 94.94136 116.90743
190.56372 171.48709 188.04292
38.927959 60.541317 192.00693
171.49908 132.43919 144.68849
83.573196 157.40393 145.22943
228.67427 102.88284 16.315559
222.32936 184.02078 219.4286
8.4712086 180.83282 218.33722
117.00541 218.98721 123.48167
5.4000697 143.85687 177.17303
194.14113 108.72822 16.114389
55.048557 43.291946 187.60147
243.09148 82.219902 248.14279
179.0984 253.71899 124.58199
67.786888 81.292191 25.985907
213.01633 53.966457 128.86876
229.33188 20.29582 56.88953
192.7605 28.767029 237.72235
155.0977 145.77243 200.70958
22.57938 151.1725 88.566444
199.75241 89.313629 197.29466
215.86681 144.36218 240.58661
147.46828 131.45366 66.806511
139.61107 54.552063 64.525497
8.1930466 122.33895 145.81769
34.178955 79.355278 199.78415
163.0477 52.68716 220.07997
219.93724 245.44765 248.847
201.65959 144.54535 138.61943
146.36917 167.12474 33.791939
234.93561 110.87714 123.10557
176.23027 70.743942 11.467758
160.81688 218.21222 142.92142
227.62338 101.82328 197.47348
36.148888 110.01633 63.812435
181.96658 144.19528 143.16771
125.75072 51.242989 195.85487
89.830688 15.180223 185.30252
82.677681 216.83981 73.847878
221.29712 107.20898 240.97261
255.08905 86.144585 95.849754
122.19462 6.3748569 166.59369
133.66238 167.19173 128.80591
20.583801 138.81512 230.6292
218.05728 174.964 84.645523
25.86972 100.93059 228.84081
169.03743 226.6813 24.083794
108.8923 60.511997 39.264015
38.194824 143.18968 0.10383129
112.04269 108.48679 107.31281
97.015305 107.57584 193.4574
192.86507 229.77046 199.83226
103.45876 107.43284 111.02399
232.26466 128.01665 249.83911
206.89386 90.073929 168.80312
35.539387 115.94365 13.733704
8.3801899 28.981079 240.41501
32.463982 137.87338 44.92701
71.727997 176.06821 188.11668
71.831833 32.110901 40.603474
179.14464 129.12621 148.17932
116.60204 65.991272 121.94978
60.434299 169.45003 229.38261
171.45828 145.71469 101.39925
165.29739 96.608559 191.47319
78.10051 132.14795 51.416832
91.834213 140.52814 80.397911
76.249229 172.99211 218.27129
121.17624 244.72012 138.33949
53.292923 60.551949 170.45039
93.896393 239.69659 43.576603
242.07571 100.29863 109.56787
108.02549 160.73293 23.017897
81.408104 76.191216 168.73259
182.80736 241.48862 9.3411465
118.28054 63.589127 141.48909
169.69737 155.42334 26.01722
250.09529 231.67258 199.00934
212.36658 96.848808 187.72945
94.70607 150.14174 248.2814
9.1564674 244.03813 231.978
52.73307 230.11383 76.276619
162.30095 82.13932 237.00955
185.31883 163.54742 57.200771
98.05143 90.354782 42.689384
107.39258 208.63533 106.27851
248.88167 122.3327 5.7018571
18.898884 116.42799 237.37444
217.90822 72.794571 78.223236
149.63766 167.50064 228.36497
141.91907 176.6571 216.40309
117.89706 229.39018 190.51694
194.17368 135.69112 16.65626
175.18323 65.009956 180.20369
232.384 163.06139 14.558472
19.073393 14.453961 223.1938
125.35191 7.3356247 89.526505
131.05376 26.234509 205.9545
112.42819 244.14273 22.749069
190.65143 137.7804 190.24971
163.0164 23.699469 110.90682
123.4195 141.59653 84.296997
57.93644 79.77021 219.98811
74.592697 254.95345 28.998075
254.79639 231.33745 192.05946
13.354856 250.41084 206.51343
236.54866 119.76275 213.84904
70.075165 250.81651 240.08356
20.029667 107.24471 228.22629
42.778736 41.896133 110.00668
233.02844 204.91254 133.70615
87.935265 72.332039 19.302677
172.23225 130.26848 99.072884
136.22038 204.86118 98.026329
165.21846 203.65756 73.363777
101.27792 217.01242 67.77462
51.79134 197.56108 187.53737
9.6403894 11.636244 182.35388
249.72395 31.665909 33.598576
221.95023 74.444649 75.494713
75.956917 51.473091 24.407249
209.66307 139.40836 96.739288
228.96574 55.640617 227.00777
72.038628 191.86099 175.86894
170.06496 101.07945 123.52651
243.42873 202.35736 84.538925
55.20335 254.14871 26.100004
242.74072 7.7890968 37.736248
169.09459 1.5130438 69.402161
202.69316 223.46327 143.8468
22.187878 43.420189 195.3199
46.595127 253.08325 78.728249
143.33441 226.049 134.36887
114.34219 42.087627 70.229858
34.211136 212.15259 171.30931
157.73764 199.58131 117.66668
242.27657 254.78467 115.81538
12.376577 241.52539 123.60448
50.112827 154.61998 125.11752
119.51498 101.31314 92.580795
7.3617873 123.50102 136.00099
202.68169 170.09615 133.08424
25.409931 57.430565 103.13325
159.77879 171.77275 145.22087
230.00865 205.98389 101.37346
145.31796 107.72153 44.954777
6.9846439 93.998108 43.739445
122.80003 106.37469 29.26483
246.40451 156.4875 183.88481
115.52203 20.002493 29.197947
208.10283 27.364281 152.69896
88.103821 230.04596 66.795113
221.18806 255.45589 124.22568
68.321312 159.2347 39.998436
213.54219 133.24335 245.98233
58.915642 22.561317 97.703857
103.87042 29.545961 191.70197
147.60986 152.34599 42.076649
176.87469 142.75049 198.56416
104.7595 2.2725258 218.56665
133.95744 210.37535 245.93094
30.656412 42.479176 219.9769
97.451523 7.6672382 219.43279
221.6772 75.988548 122.66748
5.6756401 33.530731 255.91083
251.65796 92.446373 22.472151
93.361824 196.3168 52.018112
29.063789 87.926666 204.36411
71.140442 8.8013601 91.114594
13.704598 113.56086 93.387123
232.27126 247.51831 47.762478
222.20218 22.174721 90.241653
186.17908 119.62624 97.90889
149.61188 85.303452 173.89745
16.279358 90.979095 207.42818
16.190189 86.637054 43.87455
38.662342 179.99889 240.19135
90.68045 209.06267 72.118011
39.044556 24.203108 80.919373
130.15915 37.907707 194.48022
223.54628 14.178959 185.99854
15.308752 236.38115 208.17326
105.5504 166.56023 71.799507
203.45929 60.172104 157.10295
121.35674 76.451462 248.08205
72.784904 92.641647 78.719101
116.65945 131.30399 2.7179832
100.8508 221.98445 211.78065
172.96881 5.0289993 235.98376
253.88818 135.18816 17.891468
192.36841 102.73443 32.070427
122.36694 118.04317 12.451571
74.540207 223.59358 179.0118
146.33971 171.05287 239.1839
47.442665 36.409607 59.635365
39.524712 109.19451 152.27701
118.24381 225.85396 27.581007
120.9618 70.704758 249.56544
76.742447 243.67357 254.59445
56.726212 241.56175 133.78261
74.617676 177.93016 236.51703
106.6881 44.2971 98.560204
119.13968 118.8373 66.153786
42.151474 9.1770105 237.20665
25.335379 56.619675 17.616262
84.970741 96.144386 126.81078
237.24776 214.3882 96.664734
8.8287649 79.349998 167.36949
2.394217 156.09245 155.04306
0.98866868 212.81865 140.60481
134.77127 31.436333 62.534966
115.2883 138.12444 106.83207
213.8485 1.2641119 225.66937
24.002285 43.415588 234.84637
5.2089424 68.750969 35.466053
22.825207 153.72171 131.61044
149.63599 134.96947 89.998634
246.30072 143.79823 169.34863
157.67021 146.19244 69.441078
56.71328 147.18112 26.259735
197.3181 25.952389 57.696068
3.8530617 141.24069 195.82051
110.68513 99.089188 197.08461
80.3545 123.09148 240.5002
59.200878 128.30042 53.251167
94.666931 151.12563 206.97289
226.27737 44.7616 85.942345
60.276009 35.062317 229.74057
229.62465 192.73253 119.93302
43.06572 249.44582 11.114141
69.325455 190.76392 37.066528
127.02152 194.61697 178.30722
66.842026 49.302101 21.396404
7.9266434 129.6566 144.48788
248.42685 188.85747 16.788296
45.678017 27.524408 167.91393
252.65089 253.80177 212.67552
82.593239 58.077789 247.73784
56.333813 31.702429 184.47037
176.26683 74.76815 177.91618
187.38098 144.09361 112.6801
224.44751 15.115129 51.297066
146.75473 81.957153 100.59917
168.15112 89.883797 230.25577
56.639008 82.310646 163.11324
73.427299 127.98866 190.63765
241.34122 124.63956 188.43942
198.01674 207.23279 246.51721
189.75458 7.5666056 22.219643
118.22495 183.83344 96.987793
40.14114 115.21442 241.08141
152.82123 83.661926 0.19652951
204.1183 230.41666 82.153687
48.717468 142.56778 172.03749
22.973234 199.20679 254.34813
186.08647 16.634092 126.33679
120.72412 1.9753127 250.97635
53.163548 199.99205 202.20914
43.680759 133.74663 209.77574
65.900406 251.97159 137.60919
162.8882 36.112724 252.82361
147.9696 188.93396 80.485535
148.16612 137.05226 54.902191
230.31981 185.76973 197.46997
146.3573 208.74297 140.67676
144.70543 138.82944 157.31085
