# .PCD v0.7 - Point Cloud Data file format
VERSION 0.7
FIELDS x y z
SIZE 4 4 4
TYPE F F F
COUNT 1 1 1
WIDTH 1000
HEIGHT 1
VIEWPOINT 0 0 0 1 0 0 0
POINTS 1000
DATA ascii
218.52055 93.394066 200.4734
212.46104 226.10608 50.573151
92.66832 193.55202 71.110329
146.03511 117.18988 160.99095
97.954803 128.09149 243.77081
240.12268 154.45753 183.62802
41.690998 154.02426 4.1729465
63.4072 32.939865 205.86925
43.707561 101.17943 33.226353
36.80275 254.59677 55.873768
138.76756 210.0992 156.8358
81.473999 160.46913 134.21751
135.01131 244.4689 74.8843
202.09337 127.87305 197.09795
110.40128 224.51677 72.528572
97.430809 203.50256 235.27078
26.368019 242.25647 134.65482
23.774168 48.407925 169.78609
230.91783 81.308601 16.427858
9.2520094 116.92138 16.152534
69.674416 246.2021 230.96527
220.12523 60.622498 138.17865
102.82674 191.15291 131.20906
175.62267 130.04272 10.055768
120.33224 234.49449 238.28731
187.03131 66.293594 189.06479
166.93793 84.863503 176.09251
46.43552 111.11526 225.29926
215.1375 77.106483 58.615852
231.73424 81.655945 175.78749
250.00577 142.05473 168.26984
223.65437 104.78714 236.53627
109.257 204.89352 175.15994
237.41748 115.3035 55.25119
251.37708 226.91953 37.800964
231.1821 156.14502 110.58008
161.07114 66.371735 201.21654
82.69519 111.62398 57.883297
50.48719 68.997536 142.4496
108.11469 39.671829 232.1418
27.562126 31.333868 126.83368
203.40109 245.14856 239.36102
178.57469 91.92144 191.94135
96.988487 71.965439 59.458954
151.76157 57.309566 39.011787
188.47687 25.560795 203.12842
48.681175 189.15596 19.079628
243.58778 4.9508114 133.52022
47.267235 59.844215 204.2363
193.35118 161.43217 247.65572
170.42929 188.66057 23.931002
39.201679 131.88739 20.027428
19.75358 51.735226 118.12364
214.87173 139.35695 193.4287
14.73813 39.909981 255.99835
60.267365 225.86433 32.11993
255.80389 4.9157038 222.8582
18.582075 0.41851783 236.30569
153.59526 40.841179 41.761665
108.40884 230.09299 209.84196
96.848465 138.14177 148.33408
121.97014 171.82054 25.507856
142.60992 189.00673 77.899559
259.05057 138.74979 224.66913
196.9814 154.22174 9.0677519
198.80528 206.49805 236.89639
230.88599 204.81396 250.73514
198.41058 224.47549 251.80051
175.09999 121.26254 41.975807
220.33569 220.01669 19.710638
168.47975 57.655956 161.1468
64.922859 177.20229 81.117989
86.223297 56.272083 18.985209
164.00595 51.565125 166.68982
139.37531 243.98112 71.690758
146.18434 179.14151 28.999823
125.96015 147.38545 241.74544
118.40963 82.024818 217.00722
111.23652 -3.0553098 88.305397
160.60231 207.83334 59.876278
177.17131 117.52507 123.37557
84.423088 179.45872 46.734283
159.49477 4.8993559 105.97984
184.12444 166.20453 163.23589
90.497002 44.133335 155.93111
167.02313 181.34956 84.063858
191.2834 45.119663 235.75407
181.06613 160.98172 65.859962
137.04488 17.66613 66.687218
230.64348 167.70219 23.997501
31.739849 91.519279 147.63277
157.76482 165.23463 73.927109
201.0919 66.849243 84.388374
57.381229 250.14819 0.91611505
214.68462 77.414818 48.179466
120.27988 241.36179 235.24619
201.97353 172.02071 31.01265
178.92346 92.07412 198.21402
249.50029 225.99751 220.65079
59.207348 201.23383 140.29877
84.184395 228.86555 232.86859
228.09286 119.63879 147.50708
44.127544 68.624435 221.33221
130.15979 114.22598 217.32919
129.5332 70.033058 46.187836
181.58311 180.02676 35.5989
158.74123 120.59483 214.56219
186.9277 39.122669 56.823177
128.66814 26.569378 35.389046
95.159019 79.879646 238.5652
238.02835 151.04277 214.22791
213.78516 119.60831 85.752754
106.81244 165.03502 155.87401
67.630722 36.378155 18.571522
33.414669 164.62062 93.081161
76.752739 82.207611 23.334036
117.71828 235.26704 149.394
73.842125 166.16472 195.01512
126.15038 35.882332 226.05737
164.73814 126.86437 53.207958
146.49635 104.05917 212.4644
103.12481 58.986038 83.45945
192.34833 156.87958 252.12022
94.596481 226.61349 34.835102
105.18597 -2.2863457 200.52019
200.7859 68.217209 29.354959
227.9236 176.73212 12.585589
123.75423 248.36932 181.22473
58.227039 119.35887 221.48639
24.958239 24.632553 98.021362
83.115181 165.42419 207.1284
34.1954 12.001426 13.676107
124.1203 195.69118 177.17157
114.33057 26.51996 150.94699
152.81454 130.40189 152.33159
95.352837 74.616165 227.51317
123.48857 39.189568 156.09065
140.07892 153.65121 152.62624
67.233284 210.21396 17.943092
33.579803 235.44724 43.430271
125.30321 53.386574 211.65297
77.638046 88.787376 224.8391
95.39518 205.41391 168.74139
11.634446 65.547325 199.23387
167.65916 208.31964 78.888077
58.3531 48.687836 156.78516
34.141563 171.61337 200.25914
185.90002 44.831093 102.70404
84.676781 108.21834 59.134964
103.49198 132.87909 39.609283
142.26546 -1.2320354 97.334953
100.5438 74.722435 188.77638
72.477501 163.88449 141.39299
241.44064 167.28964 207.30504
181.36736 73.575912 165.3476
6.3378925 136.30095 216.04086
164.0079 158.90369 132.73981
105.79462 89.074997 184.03001
211.25626 166.24989 39.136204
9.0232563 15.967729 175.54478
53.570484 156.6806 179.27708
145.32626 -4.7852097 1.4615403
80.470474 64.19413 167.77423
221.05894 38.687386 87.386742
178.6284 218.92714 167.24606
88.084885 223.62715 47.683784
44.741184 127.40359 212.21307
180.98016 225.29004 48.92458
107.28412 177.11821 222.44455
146.69035 184.16777 238.71606
67.960365 234.97615 141.16939
243.26711 118.15163 141.45752
247.45486 196.19418 208.41951
158.01019 162.82954 254.79678
242.37164 74.670837 223.8232
156.47025 157.90622 194.38684
205.5289 196.44521 67.27285
158.87085 114.99138 42.740379
211.29039 214.21985 223.49347
173.7117 99.595161 156.66707
158.52104 159.84045 137.87047
43.165539 146.81387 8.4386292
183.99304 126.30364 213.14793
132.81866 24.218719 125.39136
131.04306 7.8487582 208.47397
104.14956 159.70395 115.74333
40.567486 104.39713 63.24033
104.26477 0.83200526 183.70477
154.08624 202.86189 149.16666
118.6013 118.13876 254.76221
15.727456 18.47444 164.03618
154.83926 51.615234 56.265686
169.53488 230.64447 188.91226
122.37622 108.06818 217.75014
252.25079 234.26186 230.16605
199.25607 78.488998 137.40608
60.371231 120.22083 243.15401
127.2072 222.08258 247.62289
51.147518 115.54475 199.73734
204.21461 224.63531 65.941856
203.50221 239.7025 84.952522
107.99641 139.87843 141.93874
160.92432 43.31469 122.35799
98.012695 164.07402 234.62981
59.363197 153.29784 221.55098
31.463421 94.591263 50.944698
170.74362 145.86052 173.19781
153.13605 9.7312393 143.58318
146.40584 57.038864 4.8411531
88.090836 -0.75058746 236.46523
160.79695 191.80209 227.12244
240.35843 35.939453 114.68327
131.92525 199.09778 163.58635
248.4917 31.114229 74.979614
229.01689 85.764221 230.25441
195.56964 115.05245 69.884705
243.32523 22.838791 221.61383
165.90135 178.29871 236.68211
49.654247 70.576118 42.794331
57.564423 158.37695 45.11713
34.480583 57.086098 242.41272
5.0244484 41.022083 30.717266
123.99529 161.80016 234.29646
31.331326 156.24518 18.062584
105.21284 123.49107 111.76574
77.228256 59.824203 233.57198
146.59366 43.733555 8.8873873
117.79623 204.37422 192.86597
100.13461 252.14064 9.1306086
135.78204 46.733536 169.41864
182.00339 77.566551 227.67192
168.54828 81.588333 12.842978
203.37309 198.67734 178.87053
182.58386 225.23843 80.112564
195.21902 69.501595 207.1989
53.691944 149.54298 13.680486
27.401581 39.331482 62.502045
40.141758 149.50591 14.861384
236.07426 233.95346 14.341678
240.94255 111.7375 65.784081
151.73177 37.951466 149.65381
129.19884 204.39749 237.07329
139.94965 144.26112 186.72581
60.025364 65.574486 162.19772
137.8777 -0.54825115 238.46863
90.795471 49.525684 133.79294
105.37405 75.004677 174.05536
169.0546 107.66181 68.86972
182.92017 78.886002 54.91814
196.58501 59.253365 174.99495
11.729467 216.07513 218.21725
156.61371 76.880737 170.9978
142.40263 212.24893 64.053841
66.248688 16.447699 131.68184
233.15579 148.47601 135.94438
218.74017 238.00542 188.60722
91.255798 89.016052 11.242318
6.1906099 1.0855161 124.73707
81.300835 178.58803 209.95743
134.03423 115.06631 20.034018
53.223053 122.03226 236.38547
11.896429 21.208351 62.683727
187.4969 150.02698 23.771751
253.80093 213.34592 42.520081
128.57405 189.4938 199.04128
6.9953022 147.97223 188.53424
198.56065 229.38991 24.679455
210.00931 235.10281 25.978962
72.508797 58.7728 207.29414
31.027615 190.19737 70.96669
52.755722 238.36021 194.78067
33.540848 250.14702 216.38989
93.607552 174.11125 116.86763
117.02144 163.44832 82.939713
154.83359 27.888626 20.803848
97.971931 31.662273 168.92867
37.191925 224.29494 149.1071
59.959087 169.10321 135.39452
88.378227 238.52721 196.66064
31.616911 8.6990795 131.82361
104.08868 50.56031 115.87836
43.770432 77.43219 111.04215
7.2358532 166.19547 32.312801
118.97906 17.410963 199.74413
207.2332 168.14877 233.01799
222.46722 8.2869816 12.078747
136.47153 40.60939 237.53365
31.527678 98.287979 152.62498
169.63026 173.47401 138.08983
111.41782 206.77995 147.88564
237.7943 48.493832 202.04639
99.18895 94.360474 24.957586
210.21202 91.875641 191.30295
246.63231 208.93486 212.85422
188.49817 156.13022 132.13147
164.34366 122.95551 148.17601
172.18982 1.538909 193.52205
154.71321 30.20459 36.849056
57.104904 197.1456 216.136
189.80914 40.512306 170.67702
81.059753 24.214735 227.43881
30.482233 121.83474 69.202049
53.70887 71.831261 168.35661
244.30724 48.315521 129.77016
207.57065 232.60439 36.382355
80.424179 140.89836 164.99709
225.57805 51.769493 172.543
168.49609 207.38129 208.1272
198.13864 0.37053251 151.14423
164.86839 189.88678 198.2547
73.459457 17.096979 225.28223
45.829044 44.249519 92.105179
116.77332 92.932564 165.7657
28.709827 82.431786 222.57658
156.42165 21.223881 206.28198
195.41389 95.326149 93.899864
103.33546 66.115776 153.50897
25.552153 230.04622 110.64297
231.52716 164.78308 117.92682
123.31865 70.60318 57.450363
68.148438 145.35217 77.099228
38.992527 190.61415 122.91981
126.06559 44.905487 219.86969
36.785805 73.814453 47.251823
8.8112135 230.43184 73.92041
212.73145 159.19978 176.00694
45.318024 9.8765812 245.68739
199.34311 21.976667 220.48384
61.947803 252.50745 137.24533
175.08226 113.21378 212.10786
234.69609 174.16464 103.74844
57.030743 212.66499 39.605888
175.28224 76.83696 88.882256
140.36568 112.22443 163.93416
187.61397 111.29883 138.53174
3.9354434 68.689056 49.057358
181.40234 107.42491 60.508102
169.08632 50.234623 89.426964
135.44348 104.4995 87.941132
13.794173 23.6803 207.19482
233.74507 244.57359 133.44276
74.380722 43.546978 91.967148
119.98104 214.51363 174.87317
204.63249 91.808212 35.926525
110.09515 22.640823 153.7038
248.5947 19.301081 222.48695
47.972885 203.91794 80.175873
105.34471 113.05053 136.27953
199.31256 241.52339 245.44089
22.872669 4.4560041 13.586773
237.79462 222.11516 10.167556
108.9176 43.279617 56.282459
204.75078 152.3831 18.851292
121.76311 100.51153 117.74374
161.4787 208.38916 144.21164
58.956188 203.69398 172.1754
26.887005 245.62578 121.64195
101.61491 88.217064 238.29869
235.53326 18.22286 230.62947
225.7715 41.240807 235.87961
238.43765 14.640638 210.15697
252.34377 121.52127 1.2099873
50.767975 71.793854 160.64456
73.73085 189.20517 9.3429441
187.84549 83.225731 223.23929
77.932037 138.86702 172.86531
250.63976 151.1055 163.2784
110.86459 -1.6751776 254.98663
101.36546 233.51344 25.41699
74.898994 202.57298 74.51059
54.153648 185.02777 97.462265
8.0561676 178.54164 227.71478
10.947276 226.66158 45.235287
164.89946 32.213055 236.89694
180.68567 216.56097 70.626297
141.55823 34.813969 212.12712
58.096367 26.895515 115.88638
225.14272 131.94522 118.07994
227.37959 225.0381 98.987335
246.21106 36.009441 48.04945
66.49424 89.937622 234.85306
163.95926 88.31543 157.5657
135.79562 92.291 128.46985
177.77986 -1.5965986 166.41679
164.72528 171.94247 133.15028
231.26778 53.765236 172.88196
189.41379 112.34396 201.78723
48.141716 81.616333 85.508041
164.87057 40.865124 62.343086
7.5614395 35.116016 106.92184
57.789886 96.675537 199.1239
33.331196 2.2088342 37.106224
195.42342 129.08122 134.07881
65.237885 55.266972 138.68622
237.0878 207.94675 60.271385
113.37798 185.46103 122.0736
27.84449 117.74252 240.95818
231.08708 155.89674 68.203514
57.46394 69.207283 114.79625
119.98862 73.319031 150.15337
228.74178 123.8952 248.78545
173.05878 159.05374 252.15479
207.86552 92.558029 131.97615
88.225288 160.00388 189.48482
225.90729 128.826 149.57776
34.025043 242.38823 82.881241
147.91637 5.9478388 201.5224
140.75235 231.80107 109.3876
201.89859 28.516916 180.55678
64.87516 150.69014 2.0173016
213.8286 113.7078 133.81859
203.52504 25.376064 42.813721
206.81801 229.8544 142.56837
76.816322 60.835957 49.552399
9.128336 28.41221 186.18259
159.50508 48.681599 173.60921
247.48625 193.27789 184.71423
188.73305 71.791237 165.28488
40.281422 21.682007 200.82919
222.80602 74.88105 97.690254
223.20589 28.528873 218.7899
108.16521 235.14508 251.25203
148.95065 176.3161 232.18288
29.257599 -1.0082929 39.661224
79.062187 5.3486514 68.373306
14.789872 165.35818 122.59049
187.75412 143.85895 68.386398
114.07138 76.46199 146.71919
24.788668 119.06408 169.7924
224.23973 76.094154 252.40225
64.841042 47.674084 32.702133
31.138433 148.76476 15.477472
22.438082 35.666115 196.88307
255.49979 56.780235 196.89507
42.04245 143.06973 204.99829
110.68715 149.64804 114.77051
230.64061 71.993614 9.0929394
47.025387 189.76686 89.487991
194.37337 205.21222 209.34325
107.01104 173.64941 37.215515
105.61757 236.83429 87.122078
130.26897 5.720849 236.88153
146.47478 26.307522 17.307604
87.300423 25.694878 82.968666
29.522211 64.71888 227.41711
238.07253 162.85747 124.83553
95.950058 139.75099 204.83313
106.4451 179.74307 140.12415
193.47237 107.71519 95.993484
150.36349 210.12764 17.270338
182.01598 50.173401 1.6449544
17.776115 185.93799 11.907244
250.65442 67.165749 43.309238
15.119622 161.75394 72.033806
98.987206 186.04739 137.74217
69.591255 163.26331 52.807644
188.59143 -6.018456 195.82071
140.94803 95.773621 123.16778
22.823875 33.413437 237.56804
123.74598 172.87483 196.81389
138.35741 96.432434 253.3076
140.39349 107.60435 183.7513
152.0184 99.311302 3.6224396
195.63019 107.21938 165.80411
15.000572 205.9774 99.191383
145.95154 9.0984278 8.782546
205.31068 195.78716 9.3481064
141.03175 79.439316 109.981
9.0344257 105.66582 144.16924
250.56181 214.90056 65.256042
187.18431 95.907616 166.45694
189.25778 232.43109 22.894009
113.29859 127.43797 127.44878
114.6758 63.079842 241.42885
24.805788 73.985855 191.80289
129.0148 215.94063 205.98802
135.77873 157.98203 152.81975
141.00766 39.861065 237.13121
251.1067 41.320816 87.046562
138.88579 32.100952 54.559284
210.51253 213.39485 156.93971
118.40623 141.55632 139.83281
145.08134 249.43317 15.145808
11.595622 110.37157 82.187958
253.65106 124.10094 156.99306
193.72847 247.62747 121.30328
139.3546 123.5921 27.926271
32.171089 10.754681 72.682755
13.085964 4.8888435 122.7405
104.8831 139.40802 159.66754
157.55588 84.433228 124.27778
62.511925 201.17522 13.878795
198.08025 76.615959 12.221889
213.48546 83.779358 122.9295
39.539379 82.975029 255.80574
193.95644 6.4677525 254.04199
64.05027 146.00285 126.42082
93.067108 176.74509 138.29031
166.15465 187.06805 143.63147
27.529009 35.727787 30.613539
192.49033 184.53462 120.49255
62.782227 244.51085 67.725449
74.53228 183.30928 151.20624
85.155014 137.30208 242.38371
209.28622 169.56915 70.686691
206.91341 107.18655 83.918091
207.01134 166.09486 232.06592
71.606171 1.5223098 155.94994
215.37817 156.08379 92.701355
103.99335 186.21478 129.36673
132.14154 115.08202 64.505356
254.45122 165.01459 55.056931
68.66626 239.59331 240.85428
213.64755 58.694721 125.04319
198.19688 6.402967 45.811638
20.081299 215.75328 160.15266
102.03049 157.90666 77.369545
80.605247 230.16788 81.38855
234.84642 178.51321 244.89244
66.111877 25.700092 178.6217
199.86711 149.11203 42.243885
8.227273 148.297 216.03677
65.352409 206.56161 201.87915
48.660412 162.54636 11.992906
171.59673 100.03058 25.307549
217.81667 110.92357 241.62881
125.39265 210.62737 146.9987
196.31041 24.522408 123.83804
20.843277 3.0664091 54.437138
12.015646 68.549095 82.427444
188.38226 0.8541913 238.42252
230.70534 2.3848667 130.9149
192.79286 61.807922 83.630058
140.20279 106.58856 247.77423
149.11589 18.184847 97.73111
181.86858 230.94424 216.18741
162.68741 93.455391 175.06119
51.633961 36.591503 206.4184
176.11841 52.940609 210.20897
230.85657 60.610962 23.134243
55.023502 -1.0924139 30.560963
45.499027 229.82225 40.99448
174.0475 159.77168 109.49172
253.45116 37.283443 220.90697
250.40775 185.83058 244.28342
89.361588 109.06222 225.43269
46.198009 13.797366 68.507469
222.90749 57.942688 106.87728
179.43291 233.69054 165.93069
132.71216 207.86603 234.56012
148.81709 6.16923 235.38727
180.66505 42.490532 210.65602
227.50903 209.28287 120.40314
80.948875 210.35402 166.5078
45.448997 199.31609 104.96288
27.787825 29.289818 217.07594
254.6763 67.042892 232.4758
66.06636 38.317337 42.161152
178.85081 205.61108 25.970057
84.276291 78.170975 238.33965
68.031036 227.29994 249.69736
44.74472 151.09833 42.465733
254.01695 107.79506 3.5596604
121.06846 186.00085 216.60921
32.971802 227.52599 161.38861
138.80287 250.55528 191.62897
99.76786 248.05748 11.517698
69.579933 57.643906 52.115982
117.70158 227.59418 7.8422179
137.56435 52.251011 88.905373
122.00932 112.84775 62.439697
117.08569 152.44795 215.00615
159.31825 145.02977 75.599197
157.93619 3.4551516 9.7105808
119.44089 29.785852 238.24727
29.42177 162.94267 237.49268
224.11021 247.2095 232.8795
229.04185 58.408199 36.915199
29.10865 175.10382 12.47706
32.744785 54.520519 69.495773
125.71264 169.30258 186.53145
183.07669 22.865444 86.971359
147.48651 178.32201 237.47151
219.60832 77.422943 246.43504
233.44119 195.30063 24.369789
216.5256 219.58304 188.2386
196.60936 179.55994 187.11745
172.48471 151.20854 253.48212
210.17802 172.84613 173.49377
223.72176 203.17407 229.12245
32.57391 73.453514 146.70782
216.41362 -6.8841438 175.94722
52.41341 140.06224 103.3064
32.525791 101.46532 188.345
21.935148 72.260269 135.67224
44.639011 24.128979 106.67674
239.40022 207.62677 36.987473
167.45578 121.14748 194.12213
163.12389 69.244797 118.19669
79.287819 32.603134 73.053368
53.471916 63.473503 147.59755
198.7112 18.859596 148.26894
120.36329 69.077904 34.07365
224.61621 94.379845 136.6109
157.67807 116.08914 209.59128
38.949776 163.99164 235.26205
144.72284 136.25166 195.11588
178.44513 42.103233 66.032272
122.20869 204.73285 140.92644
234.12341 22.777966 176.27542
53.074535 80.315697 241.575
198.55423 17.092007 11.356634
95.001328 138.61919 84.591675
127.83781 102.59688 186.75162
4.9439254 4.3165493 52.27153
215.5649 30.144567 217.52119
199.71991 170.62273 102.73921
136.10979 93.622849 151.04305
206.11348 206.19753 103.91482
90.312439 187.37334 134.8483
12.388352 240.32436 216.96596
251.78493 173.72577 240.9756
1.4995742 16.430515 126.82445
90.372116 137.54207 233.81891
21.331703 144.70619 238.30397
72.117538 101.24891 19.951885
31.484564 40.233429 197.43939
138.79303 169.28654 39.753979
31.902086 115.73613 253.01776
138.67393 195.73679 187.42741
17.734018 203.91615 172.03633
234.20235 185.87915 98.442039
219.218 187.28822 114.91348
84.169968 21.377209 255.52432
62.568756 38.369991 144.88544
47.274124 107.44594 248.58813
68.261581 136.75261 33.894455
5.4356556 15.631919 207.92027
46.13575 42.031132 68.697876
47.752228 173.77333 13.153683
235.43423 177.79245 217.56313
150.52821 152.27271 155.50119
247.39246 105.37183 94.324532
109.30016 193.57759 118.62481
102.02465 -1.1355503 159.15366
248.33839 37.237091 12.182578
243.14394 100.86456 151.23279
21.34285 113.4598 167.04349
230.69301 150.77711 210.65773
44.957455 198.90709 129.99034
57.162445 171.51042 59.889618
14.878005 62.00172 217.32152
169.84908 44.106758 75.261635
11.847126 152.12457 16.534418
133.9581 249.88469 18.958773
36.851334 244.11772 64.838669
48.44841 227.13837 174.12599
200.19389 239.18004 32.260128
110.21842 211.55379 190.99507
66.228149 251.06142 135.34857
188.98846 41.751652 52.748058
249.28362 52.318954 115.22985
216.4976 221.7327 165.23598
36.095871 234.52728 61.679958
48.052422 103.14566 60.086079
67.986229 130.7361 49.33979
134.19714 168.90053 22.029224
50.128433 107.48176 12.048841
85.954079 209.0215 227.31891
14.057213 12.797034 224.53732
155.86267 195.33554 16.857744
208.27377 184.76585 77.843307
65.934708 142.29492 50.995193
232.04195 164.36034 30.637945
39.389244 215.49841 135.39638
92.715057 20.861002 12.424126
146.49825 147.24187 185.90378
170.13013 192.75171 39.068127
175.97931 15.006287 250.96065
147.789 29.561045 8.2390842
121.5424 179.479 208.89377
136.49338 124.58247 144.81432
216.41426 182.71725 33.322258
10.491693 160.01453 205.67921
42.220936 190.73041 166.4196
171.8075 21.995668 190.50221
189.15292 162.70641 86.765701
115.86282 72.468796 29.336044
161.02531 246.30698 50.473385
152.17197 137.17679 85.172791
155.49097 -3.8602922 12.78283
113.02094 129.72566 142.05157
256.13699 78.565529 76.208855
33.76453 91.194809 236.49068
240.55733 119.49393 172.57698
148.06142 37.567303 200.55385
89.001274 223.06081 113.76106
170.73128 77.342842 190.22787
205.36433 228.5175 186.0031
252.0117 118.07416 72.405663
77.780853 23.58816 73.972878
94.338478 131.46078 207.5625
236.20575 123.70403 39.017826
57.589321 160.4814 131.33405
37.400887 141.37486 3.149123
206.05542 26.038803 45.859413
153.47417 109.0468 15.889046
8.24683 25.952608 99.141808
205.24184 216.41772 78.685814
134.99782 210.56314 205.48174
201.10783 29.015621 231.76863
22.320456 124.96677 110.4403
228.90862 93.442436 242.31104
13.870383 152.89693 148.70311
146.25531 180.69791 35.295727
147.62198 129.60028 68.508499
189.7379 21.599689 182.84364
205.87187 28.336826 209.06686
56.002739 231.21474 176.51419
130.15698 100.07397 135.65901
77.712769 45.803909 171.67412
54.121067 64.544273 41.342342
163.42853 30.17667 142.71526
150.04407 39.135166 40.001705
47.692188 182.61459 225.69237
79.02169 68.420738 104.36423
145.1442 -1.1007295 132.57112
79.176956 206.04524 168.07411
25.008408 -0.33064586 145.10107
205.83144 119.9772 249.65509
88.217049 200.15764 42.141846
261.59424 245.93031 108.5342
43.79501 159.71472 144.39467
182.67325 47.34639 188.74106
224.09019 87.175232 116.90743
196.47244 164.73206 188.04292
41.05711 59.14587 192.00693
176.05666 126.37329 144.68849
89.055603 154.39139 145.22943
232.16553 94.839554 16.315559
228.65614 176.14951 219.4286
14.817023 180.42703 218.33722
124.61668 214.77039 123.48167
10.457313 143.58078 177.17303
197.85742 101.88656 16.114389
56.565891 41.34441 187.60147
245.85281 73.686043 248.14279
187.88396 247.314 124.58199
70.622658 78.876938 25.985907
214.80997 46.49942 128.86876
229.94049 12.27989 56.88953
193.68703 22.022263 237.72235
160.1306 140.2708 200.70958
27.881472 150.2924 88.566444
202.78773 82.287964 197.29466
220.81346 136.7406 240.58661
152.0061 126.22701 66.806511
141.46985 49.646477 64.525497
12.497623 121.97849 145.81769
36.967594 78.114113 199.78415
164.82713 46.964787 220.07997
228.40926 237.62242 248.847
206.62129 137.41948 138.61943
152.15257 161.91472 33.791939
238.70204 102.61047 123.10557
178.63185 64.550507 11.467758
168.3744 212.46687 142.92142
231.07829 93.817314 197.47348
40.006382 108.68773 63.812435
186.92809 137.7569 143.16771
127.50248 46.823135 195.85487
90.345757 12.035931 185.30252
90.234917 213.82231 73.847878
224.94385 99.420509 240.97261
257.98007 77.189629 95.849754
122.38267 2.1064429 166.59369
139.45586 162.42513 128.80591
25.455841 138.01219 230.6292
224.0706 167.24733 84.645523
29.416389 99.966263 228.84081
176.88551 220.64389 24.083794
110.97781 56.67485 39.264015
43.208809 141.76949 0.10383129
115.80058 104.51047 107.31281
100.75055 104.12453 193.4574
200.80644 222.8996 199.83226
107.18508 103.75674 111.02399
236.63089 119.83275 249.83911
209.95135 82.798569 168.80312
39.604115 114.63272 13.733704
9.4265099 28.670959 240.41501
37.295918 136.65642 44.92701
77.868996 173.45769 188.11668
72.94873 29.584444 40.603474
183.58194 122.79549 148.17932
118.87408 61.881721 121.94978
66.351204 167.23767 229.38261
176.4792 139.64212 101.39925
168.60829 90.780907 191.47319
82.704834 129.34178 51.416832
96.722633 137.23756 80.397911
82.280121 170.22568 218.27129
129.68303 240.34206 138.33949
55.413692 58.655167 170.45039
102.24448 236.27365 43.576603
245.46861 91.789215 109.56787
113.60918 156.86497 23.017897
84.057549 73.303703 168.73259
191.16382 234.96162 9.3411465
120.46772 59.422462 141.48909
175.05818 149.40631 26.01722
258.06821 222.80325 199.00934
215.65718 89.378326 187.72945
99.928246 146.74509 248.2814
17.707699 243.56993 231.978
60.771805 228.13329 76.276619
165.1087 76.425064 237.00955
190.95366 156.98027 57.200771
101.18504 86.8778 42.689384
114.64842 204.7603 106.27851
253.0394 113.57233 5.7018571
22.99065 115.69751 237.37444
220.35597 65.14534 78.223236
155.43219 162.17633 228.36497
148.03784 171.59659 216.40309
125.87084 225.13589 190.51694
198.83093 128.83189 16.65626
177.38531 58.856544 180.20369
237.97321 154.85196 14.558472
19.606211 13.779505 223.1938
125.57156 2.9564381 89.526505
131.92949 21.644817 205.9545
120.92016 240.07031 22.749069
195.38376 131.04283 190.24971
163.78419 17.995842 110.90682
128.32596 137.20299 84.296997
60.725086 77.699669 219.98811
83.485008 252.1949 28.998075
262.75473 222.30426 192.05946
22.125935 249.79222 206.51343
240.62422 111.43436 213.84904
78.825851 248.21814 240.08356
23.800253 106.48035 228.22629
44.254833 40.377655 110.00668
240.07784 196.65515 133.70615
90.446053 69.219086 19.302677
176.71364 124.1783 99.072884
143.32695 199.98236 98.026329
172.26535 197.76747 73.363777
108.82985 213.34567 67.77462
58.694576 195.63324 187.53737
10.080616 11.29271 182.35388
250.71695 22.931381 33.598576
224.45309 66.653351 75.494713
77.747032 48.790874 24.407249
214.44063 132.0063 96.739288
230.80809 47.615936 227.00777
78.730598 189.23001 175.86894
173.52898 95.082695 123.52651
250.3826 193.73856 84.538925
64.079384 252.06732 26.100004
242.90468 -0.68717718 37.736248
169.08438 -4.3891935 69.402161
210.40843 216.25327 143.8468
23.729706 42.619392 195.3199
55.43922 251.30293 78.728249
151.17609 220.909 134.36887
115.78136 38.071503 70.229858
41.634315 210.82939 171.30931
164.64684 193.95477 117.66668
251.06084 246.17413 115.81538
20.838154 240.94633 123.60448
55.518463 152.77687 125.11752
123.01795 97.080414 92.580795
11.707426 123.16887 136.00099
208.53448 162.91904 133.08424
27.438751 56.508785 103.13325
165.71623 166.09192 145.22087
237.09727 197.83122 101.37346
149.02887 102.58439 44.954777
10.300876 93.69709 43.739445
126.47765 102.02423 29.26483
251.75574 147.79279 183.88481
116.18974 15.958649 29.197947
208.97105 20.084929 152.69896
96.118637 226.83104 66.795113
230.00861 247.58093 124.22568
73.876907 156.75331 39.998436
218.10223 125.70967 245.98233
59.707134 20.491447 97.703857
104.87829 25.902939 191.70197
152.87674 147.10168 42.076649
181.78886 136.49069 198.56416
104.81499 -1.384912 218.56665
141.25783 205.57214 245.93094
32.16024 41.383408 219.9769
97.699745 4.2615585 219.43279
224.23412 68.205841 122.66748
6.8823881 33.312229 255.91083
254.77098 83.607323 22.472151
100.19631 192.93893 52.018112
32.154682 86.858795 204.36411
71.444267 6.3132334 91.114594
17.699467 113.0134 93.387123
240.80801 239.26138 47.762478
222.88069 14.406469 90.241653
190.28055 113.05582 97.90889
152.53778 80.030106 173.89745
19.484568 90.355537 207.42818
19.243917 86.019249 43.87455
44.960663 178.53995 240.19135
97.961395 205.77061 72.118011
39.905449 22.825729 80.919373
131.44283 33.342129 194.48022
223.94495 6.368669 185.99854
23.589012 235.70288 208.17326
111.33897 162.77512 71.799507
205.47533 53.034821 157.10295
123.99093 72.169601 248.08205
76.013718 90.045059 78.719101
121.21083 127.15264 2.7179832
108.57652 218.32959 211.78065
173.07895 -1.0105886 235.98376
258.49152 126.24523 17.891468
195.87659 95.958282 32.070427
126.45205 113.70072 12.451571
82.338104 220.85597 179.0118
152.26022 165.84149 239.1839
48.724442 34.731705 59.635365
43.351467 107.7486 152.27701
126.09397 221.58972 27.581007
123.39568 66.440186 249.56544
85.239784 240.84686 254.59445
65.162041 239.43488 133.78261
80.821892 175.21765 236.51703
108.20906 40.546753 98.560204
123.25446 114.607 66.153786
42.486073 7.7003551 237.20665
27.335945 55.700993 17.616262
88.314377 93.120377 126.81078
244.62527 205.97777 96.664734
11.632662 78.993538 167.36949
7.8803062 155.9138 155.04306
8.4553299 212.65451 140.60481
135.82628 26.713734 62.534966
120.07854 134.0168 106.83207
213.80234 -6.1998625 225.66937
25.542847 42.551472 234.84637
7.6451435 68.527298 35.466053
28.216114 152.83148 131.61044
154.2952 129.66504 89.998634
251.20915 135.11487 169.34863
162.7162 140.60078 69.441078
61.855282 145.1122 26.259735
198.14363 19.050278 57.696068
8.8199434 141.02017 195.82051
114.11586 95.16597 197.08461
84.64138 120.21217 240.5002
63.682434 126.15618 53.251167
99.92347 147.72974 206.97289
227.7417 36.837368 85.942345
61.502949 32.937355 229.74057
236.25104 184.60135 119.93302
51.785019 247.79089 11.114141
75.980789 188.22829 37.066528
133.77617 190.06544 178.30722
68.561928 46.939316 21.396404
12.486765 129.30098 144.48788
254.90654 180.07245 16.788296
46.65078 25.913502 167.91393
261.39456 244.82979 212.67552
84.60981 55.15995 247.73784
57.445896 29.717094 184.47037
178.80882 68.570976 177.91618
192.33562 137.46634 112.6801
224.8783 7.2728167 51.297066
149.56558 76.785561 100.59917
171.22559 83.960648 230.25577
59.517105 80.283836 163.11324
77.889305 125.34812 190.63765
245.58405 116.14095 188.43942
205.16843 200.19586 246.51721
189.94305 0.93965721 22.219643
124.60863 179.59546 96.987793
44.177612 113.74334 241.08141
155.68788 78.27758 0.19652951
212.07538 223.15266 82.153687
53.703335 140.78072 172.03749
29.951458 198.28368 254.34813
186.59363 10.129635 126.33679
120.75952 -2.2391016 250.97635
60.150784 198.01485 202.20914
48.361843 132.14073 209.77574
74.693939 249.5182 137.60919
164.08928 30.40601 252.82361
154.51317 183.6548 80.485535
152.89891 131.79785 54.902191
236.70277 177.61853 197.46997
153.59315 203.50803 140.67676
149.50235 133.69473 157.31085
