# .PCD v0.7 - Point Cloud Data file format
VERSION 0.7
FIELDS x y z
SIZE 4 4 4
TYPE F F F
COUNT 1 1 1
WIDTH 397
HEIGHT 1
VIEWPOINT 0 0 0 1 0 0 0
POINTS 397
DATA ascii
0.075421602 0.18671435 0.056147188
0.068255298 0.18739402 0.05677186
0.059339002 0.18658218 0.056297254
0.096422002 0.18933068 0.048309032
0.094544999 0.19826889 0.041114975
0.104137 0.18856966 0.040574849
0.098860003 0.19282143 0.043158725
0.096749999 0.19869924 0.034460105
0.10575 0.18854764 0.034552172
0.085982002 0.19751909 0.048102628
0.077981301 0.19860494 0.049789164
0.088101 0.19066423 0.051394656
0.078668699 0.19121143 0.053536654
0.088080004 0.20050313 0.043324426
0.078086101 0.20376293 0.043841131
0.092749998 0.19614854 0.04628621
0.068131097 0.19872947 0.050196454
0.058832001 0.1980298 0.049426593
0.067993701 0.19290525 0.054346271
0.05768 0.19180124 0.053507458
0.068334103 0.20380929 0.044445463
0.058029 0.20234282 0.043670833
0.086484 0.20434833 0.036945492
0.077092104 0.20719194 0.036471635
0.071461499 0.20768264 0.035207629
0.056179002 0.20492476 0.037011359
0.052749999 0.18535218 0.055277146
-0.0045560002 0.20574023 0.069219291
0.0040289983 0.21684037 0.060725473
-0.0019249991 0.21801302 0.063087665
0.004490003 0.20904171 0.060745306
-0.0011119992 0.20971698 0.066215515
-0.0095279962 0.20572953 0.069367245
-0.010421 0.21692024 0.062456436
-0.012672 0.2099448 0.065528542
-0.018129997 0.20794865 0.060618952
0.0036749989 0.19520828 0.067419015
-0.0023989975 0.19810006 0.069476493
0.0039089993 0.19148353 0.067049019
-0.0020119995 0.18968251 0.068223804
0.0075669996 0.19894105 0.060977824
0.0016740039 0.20191295 0.066489071
0.0069060028 0.19078141 0.060404647
-0.001300998 0.18538079 0.063696057
-0.010514997 0.19892833 0.069259651
-0.0081790015 0.19082695 0.067194059
-0.015216 0.19804329 0.066072464
-0.019538 0.19877614 0.061720103
-0.012658998 0.18879902 0.063732132
-0.019535996 0.19049025 0.060536403
0.013500001 0.22680251 0.051059872
0.014483001 0.2278939 0.047964644
0.033750001 0.25028169 0.02411015
0.032250002 0.25027543 0.024154721
0.033750001 0.24762958 0.02408349
0.036823999 0.235321 0.023715505
0.018087 0.23142751 0.032665536
0.028292999 0.24437562 0.026183683
0.020532001 0.24195823 0.027001809
0.028108001 0.23440133 0.027241526
0.018776 0.23611744 0.030048072
0.0075829998 0.22706425 0.054155424
-0.0016700029 0.22700889 0.054692954
0.007457003 0.22991517 0.048743527
-0.002109997 0.23013924 0.049017377
-0.0086629987 0.22671318 0.053204309
-0.011569001 0.22861348 0.047227614
-0.017250001 0.22773723 0.043115646
0.01275 0.23272796 0.031890988
0.012111999 0.23494813 0.029171003
-0.0185 0.2280743 0.040214323
0.013870999 0.2204441 0.05089131
0.015294999 0.20975962 0.050679255
0.015856002 0.22205126 0.046497222
0.023375001 0.20800292 0.040113952
0.018610001 0.21201845 0.044594407
0.051721998 0.19690624 0.047505524
0.048344001 0.19039676 0.051070273
0.038079001 0.18996242 0.048628055
0.048652001 0.19958282 0.041609652
0.037590001 0.19904643 0.040252801
0.045130998 0.19576249 0.045296848
0.038253002 0.19528964 0.044709325
0.017088 0.20075879 0.052283194
0.028328001 0.18992215 0.048770845
0.017963 0.19085044 0.05050087
0.027504999 0.20031311 0.041227572
0.022054002 0.20220867 0.04555954
0.027579002 0.19519383 0.045103829
0.022339001 0.19505176 0.045324206
0.034035999 0.22975247 0.02159114
0.019402001 0.22403365 0.034260027
0.023625001 0.20909098 0.036611293
0.020874999 0.21494733 0.035394497
0.027024001 0.22694691 0.026105411
0.022034999 0.2239556 0.028995227
0.047073998 0.20255503 0.035478637
0.038417 0.2021969 0.035152629
0.028267 0.20439745 0.034296554
0.0085179992 0.22051598 0.05627168
-0.0017289966 0.22346345 0.058867145
0.0094740018 0.21045858 0.054687541
-0.012618996 0.22178346 0.056234717
-0.017824002 0.21838272 0.053559385
-0.019000001 0.21167713 0.056651242
-0.015662 0.22555517 0.048941664
-0.019601002 0.2222167 0.046110485
-0.020681001 0.21284504 0.042592969
0.011278 0.2025556 0.056599263
0.0099250004 0.18875492 0.053339861
-0.021811999 0.2010411 0.056094572
-0.021727003 0.18992165 0.05545684
-0.023163997 0.2024633 0.042669863
-0.023938 0.19609997 0.040955566
-0.021582998 0.22104275 0.039877441
-0.020929001 0.21258193 0.038644928
-0.023093998 0.19257911 0.034967285
0.094948001 0.17609471 0.055330269
0.1036 0.16609418 0.052960403
0.09742 0.16942012 0.056304827
0.10392 0.16035435 0.052730337
0.098155998 0.15971743 0.056730621
0.10381 0.15215325 0.051395975
0.098124996 0.14985487 0.055319279
0.0845 0.16529009 0.063366763
0.077481702 0.16652724 0.064989738
0.087407 0.17832094 0.05738106
0.077953599 0.17931521 0.057348114
0.088510998 0.16967177 0.060319927
0.078643598 0.17166507 0.061434187
0.067980297 0.1672644 0.066699982
0.058554001 0.16674668 0.066582784
0.068125002 0.17982179 0.057911094
0.058125 0.17985275 0.057475165
0.068237804 0.17323774 0.060210146
0.057502002 0.17271575 0.059397589
0.086381003 0.1578709 0.063093558
0.0781167 0.15837795 0.066786058
0.087643996 0.14891729 0.062572382
0.078125 0.14837596 0.065691397
0.090575002 0.16049063 0.06079983
0.092445001 0.14808625 0.059618987
0.068206899 0.15809277 0.068376854
0.058056999 0.15799242 0.068530381
0.068043299 0.14807035 0.067937724
0.058125 0.14827907 0.067178383
0.10325 0.14131218 0.049043294
0.098149002 0.14020072 0.051835783
0.096761003 0.1313391 0.050221778
0.093571 0.12137163 0.046639714
0.085832 0.13957514 0.060519226
0.078043103 0.13859555 0.063781641
0.083984002 0.13129637 0.058120701
0.078097299 0.12896515 0.060351968
0.090566002 0.13859403 0.057009529
0.088594005 0.1293253 0.055281751
0.082874998 0.12522422 0.056533169
0.068214804 0.13819906 0.065237634
0.058215 0.13857748 0.06378819
0.068125002 0.12847379 0.061757263
0.05816 0.12916239 0.060141373
0.054311998 0.1250533 0.056434423
0.076615401 0.12231021 0.057709064
0.088087998 0.12017183 0.049392521
0.078841001 0.11850614 0.052492876
0.087687999 0.11333632 0.048192523
0.078125 0.11281659 0.050431985
0.068388902 0.12216089 0.058153611
0.057549998 0.11923347 0.056917157
0.056148998 0.11228804 0.056075349
0.067970604 0.11781446 0.053369142
0.058347002 0.11963166 0.054709084
0.068138897 0.11263224 0.052390389
0.060845502 0.11231756 0.054442566
0.113661 0.16997875 0.035387006
0.104642 0.17928076 0.046096824
0.098343 0.18109933 0.050904706
0.106339 0.17076315 0.047941353
0.101733 0.17304605 0.051960181
0.106998 0.1819146 0.041367356
0.102875 0.18588084 0.044761378
0.110938 0.17247593 0.039921679
0.114153 0.16225082 0.036038831
0.12375 0.14867499 0.03028141
0.11516 0.15254512 0.034021426
0.108036 0.16088466 0.047175076
0.107861 0.15091665 0.045975115
0.112216 0.16245581 0.040120076
0.112355 0.15202254 0.03898298
0.113875 0.17316648 0.028512754
0.114375 0.17465189 0.022031911
0.109545 0.18261033 0.032249451
0.112313 0.176717 0.030999087
0.115406 0.1643946 0.027618237
0.125118 0.14943476 0.027878765
0.118722 0.15061584 0.027529743
0.115917 0.16414699 0.021339774
0.089432999 0.18309686 0.053936213
0.080970004 0.18398589 0.054651912
0.116657 0.13223553 0.038986191
0.12607899 0.14233229 0.033119291
0.118168 0.1426979 0.035368059
0.126055 0.13323012 0.032627732
0.121163 0.13205548 0.036739267
0.106914 0.14135244 0.045099515
0.103 0.13853672 0.048521947
0.108004 0.13134781 0.040660944
0.100629 0.12902462 0.045752164
0.111875 0.14179043 0.037319757
0.111434 0.13616353 0.037816484
0.114921 0.12507015 0.037884239
0.124635 0.12661085 0.028811367
0.11828 0.12331207 0.03218611
0.107973 0.12349866 0.037878476
0.098053001 0.12159403 0.042190362
0.095595002 0.11520059 0.039432734
0.108455 0.11915003 0.034058083
0.102031 0.11878559 0.034991447
0.106581 0.11644309 0.030512847
0.10019 0.11520195 0.032058153
0.129333 0.1448141 0.026640646
0.11650001 0.14801353 0.02946238
0.12956201 0.13463257 0.026198346
0.125636 0.12605183 0.025833588
0.1205 0.12195596 0.025266029
0.093000002 0.12180203 0.046041794
0.092389002 0.1130826 0.04382572
0.050455 0.16572064 0.064765297
0.048537999 0.17929319 0.056427084
0.038973 0.17720054 0.055293817
0.047479 0.17048217 0.058354586
0.038141999 0.1699751 0.056954391
0.026737999 0.17741579 0.054983754
0.017845999 0.17732528 0.055052835
0.028124999 0.17009626 0.05550313
0.018081002 0.16996053 0.056634247
0.048510998 0.15820642 0.066296428
0.042999998 0.15528022 0.061358113
0.048930001 0.14893106 0.064586908
0.043989003 0.16194485 0.06097896
0.038107 0.16004084 0.055852082
0.044375002 0.14760782 0.05706656
0.038029999 0.1502817 0.052468948
0.028175998 0.16008227 0.054975312
0.018174998 0.15974537 0.056582063
0.028082002 0.15005752 0.052828245
0.018151 0.1501455 0.053272814
0.0086610019 0.17718963 0.055227652
-0.0026720017 0.18252727 0.059138574
0.0082160011 0.16985275 0.056380782
-5.800277e-05 0.16950542 0.054382995
-0.010439001 0.18365927 0.059347142
0.0080730021 0.15968402 0.056156382
-0.00034400076 0.16066943 0.053657204
0.0085900016 0.15086484 0.05255191
0.0014209971 0.15365461 0.051778644
0.050954998 0.13978183 0.061304636
0.052258 0.13126445 0.058513079
0.046452001 0.13944173 0.054024454
0.036010001 0.14143901 0.049965922
0.04831 0.12971306 0.052594569
0.033888999 0.13449165 0.048462402
0.028769001 0.14053878 0.050306953
0.021412 0.14464885 0.049839415
0.0297 0.1332573 0.04832831
0.048080001 0.1172545 0.058007345
0.040812999 0.11605076 0.056656677
0.048080999 0.11198973 0.058542844
0.039669 0.11210665 0.057157639
0.048002001 0.12285903 0.05320764
0.038089 0.12010325 0.051267222
0.034724001 0.11275136 0.052598998
0.027984001 0.11859801 0.047427364
0.018059999 0.11821816 0.049296692
0.028072 0.11287883 0.04863112
0.018143002 0.11243853 0.051225089
0.010547001 0.11784422 0.048601888
0.0092350021 0.11253247 0.04937112
0.045727 0.18386009 0.054110125
0.037620999 0.18243946 0.052721903
0.028848 0.18218952 0.052703947
0.018302001 0.18267414 0.053063896
0.0079089999 0.18238474 0.053039379
-0.0016549975 0.17970759 0.051897679
-0.0046340004 0.17145786 0.051577419
-0.0091200024 0.17956096 0.046617892
-0.010202996 0.17114125 0.046731196
-0.013779998 0.1810351 0.04043993
-0.017292 0.17923796 0.034976646
-0.015210003 0.17226383 0.04105014
-0.018082 0.1723184 0.036185391
-0.0051599964 0.15980053 0.0504127
0.0054230019 0.14731656 0.048813708
-0.0022789985 0.15060461 0.046693683
-0.0063749999 0.14785838 0.038549218
-0.010031 0.16145633 0.046074931
-0.0089190006 0.15407863 0.043207243
-0.014834002 0.16208832 0.03877585
-0.017890997 0.16521776 0.034809783
-0.011047997 0.1528233 0.036317483
-0.016392998 0.18419701 0.033462074
-0.017672002 0.18149623 0.031698029
-0.019332998 0.17507374 0.031144805
-0.016374998 0.15966901 0.029986609
-0.019179001 0.16568112 0.031174902
-0.012878999 0.15289186 0.028213155
-0.012500003 0.15295672 0.017440846
0.043563001 0.13804436 0.047865033
0.039965 0.14006674 0.047766536
0.043869 0.13056952 0.046371199
0.038336001 0.13085294 0.04525983
0.024284001 0.13846204 0.047767211
0.018041 0.14110598 0.045681886
0.027442999 0.12957306 0.046376567
0.020594001 0.13155857 0.041927602
0.0145 0.13767849 0.037894078
0.016249999 0.1343419 0.034208849
0.035939999 0.12428018 0.045179293
0.028259002 0.12363928 0.045809228
0.019025002 0.12380937 0.043485284
0.017000001 0.12650293 0.036031615
0.015854999 0.1323311 0.019732114
0.014152002 0.1324839 0.015785167
0.015156001 0.12722006 0.018210992
0.01385 0.12883306 0.016247265
0.0085490011 0.14266934 0.044531263
0.00027500093 0.14471397 0.042205185
0.0071770027 0.13896394 0.035437066
-0.0010370016 0.14262597 0.034277435
0.0091429986 0.13682726 0.030852076
0.0029999986 0.13816029 0.028480517
-0.0081999972 0.14765823 0.030747436
0.0078839995 0.11944462 0.043717083
0.0045270026 0.11384489 0.043093685
0.0027500018 0.11240564 0.038295686
-0.0027019978 0.14177267 0.027566368
0.0085499994 0.13598236 0.026782887
0.0024999976 0.13820565 0.027590167
0.012589 0.13305493 0.011319682
-0.0092220008 0.14749816 0.027395541
0.0075270012 0.12269896 0.017220132
0.0027500018 0.12039739 0.016193828
0.0036109984 0.11828919 0.018670525
0.0016409978 0.11646307 0.01720007
0.0086189993 0.12595923 0.014140908
0.0014410019 0.12198986 0.01413906
-0.00092899799 0.11824705 0.014048479
0.053374998 0.26470834 0.0060301181
0.054802001 0.25563565 0.0056305584
0.054056 0.24232419 0.013620012
0.054022998 0.24036179 0.013643629
0.056749001 0.24757832 0.0081375912
0.055707999 0.24097933 0.01126159
0.056014001 0.26551315 0.0020998791
0.058366999 0.25851709 0.0015104804
0.060897101 0.25121295 0.0023945477
0.044438001 0.26229119 0.015900068
0.042750001 0.26207709 0.016058113
0.044264 0.25898105 0.016100738
0.038784001 0.25489017 0.019413542
0.049601 0.2647841 0.010879861
0.048661001 0.25676 0.010132851
0.042874999 0.25207624 0.013927931
0.030609999 0.25194156 0.021784142
0.047123998 0.24355035 0.015098449
0.038403001 0.24557553 0.018292485
0.047399998 0.23810017 0.018383194
0.039627999 0.23631193 0.020688556
0.048841998 0.24857363 0.011186786
0.042999998 0.25095624 0.013705898
0.028281 0.24659808 0.02265689
0.021749999 0.24587125 0.023158282
0.032749999 0.23990868 0.022400361
0.0035710037 0.23748633 0.013481769
-0.0012840033 0.23768331 0.016104002
0.0040210038 0.24377103 0.0050496683
-0.0016229972 0.24443887 0.0071954969
0.0039319992 0.24083608 0.0089037092
-0.0033069998 0.24057482 0.010619042
-0.0069999993 0.24314086 0.0034978613
-0.0071789995 0.23904802 0.0072558224
-0.0036910027 0.25645852 -0.013517268
-0.0075500011 0.25598615 -0.01482675
0.0040789992 0.24772824 -0.0016952362
-0.002094999 0.24964765 -0.0011255629
0.0040000007 0.25074694 -0.0072229113
-0.003448002 0.25331038 -0.0080027357
-0.0077700019 0.24635053 -0.0028138645
-0.0078929961 0.24179333 0.0012302548
-0.0082110018 0.25216597 -0.010709351
0.035333 0.2299363 0.020354904
0.0038829967 0.25844538 -0.022840483
-0.001985997 0.26072222 -0.020431159
0.00074999779 0.26788694 -0.029160984
0.0050079972 0.26389265 -0.029337598
6.4998865e-05 0.26531523 -0.026454557
-0.0079300031 0.25963464 -0.019590337
