# .PCD v0.7 - Point Cloud Data file format
VERSION 0.7
FIELDS x y z
SIZE 4 4 4
TYPE F F F
COUNT 1 1 1
WIDTH 397
HEIGHT 1
VIEWPOINT 0 0 0 1 0 0 0
POINTS 397
DATA ascii
0.081075691 0.19071579 0.048069905
0.073933989 0.19093974 0.049144138
0.065090872 0.18947634 0.049350306
0.10127318 0.19419636 0.038622916
0.098275572 0.20242189 0.030972816
0.10850804 0.19340041 0.03044115
0.10310701 0.1974552 0.033084694
0.10000822 0.20250806 0.024166569
0.10972606 0.19304243 0.024336794
0.090261109 0.2016003 0.03857597
0.082327373 0.20224929 0.040736835
0.093092583 0.19517362 0.042181171
0.083803713 0.19522107 0.044932634
0.091818333 0.20435908 0.033467017
0.08166375 0.20694496 0.034451511
0.096980944 0.20057264 0.036391646
0.072542123 0.20171805 0.041820601
0.063290663 0.20031762 0.041751839
0.073106833 0.1962235 0.04636509
0.062871352 0.1943451 0.046326634
0.071994759 0.20635745 0.035729945
0.061798967 0.20412385 0.035779972
0.089532092 0.20759836 0.026962884
0.07994362 0.20973836 0.026948601
0.074222296 0.20974059 0.026049366
0.059335891 0.2060679 0.029102284
0.058559649 0.1877183 0.048880376
0.00091478229 0.20505035 0.065333411
0.0080834106 0.21605782 0.055509645
0.0022235662 0.2169859 0.058194071
0.0091239884 0.20833333 0.056039903
0.0038520843 0.20902245 0.061827287
-0.0040226802 0.20470473 0.065828219
-0.0061904863 0.21526061 0.058234606
-0.0077129751 0.20839351 0.061934181
-0.013312735 0.2056625 0.057568118
0.0097735152 0.19501197 0.063700609
0.0036466196 0.1976192 0.065970547
0.010259762 0.19129536 0.06357529
0.0045774803 0.18917912 0.06528271
0.012952916 0.19851667 0.056759521
0.0072231293 0.20147328 0.062448222
0.012865551 0.19031084 0.05680304
0.0053129718 0.18461223 0.061026737
-0.0045055449 0.19786222 0.066263273
-0.0017111748 0.18981183 0.064608529
-0.009323515 0.19641742 0.063481107
-0.013959996 0.19652173 0.059400409
-0.0062418804 0.187225 0.061617073
-0.013417602 0.18819097 0.058798924
0.016142815 0.22590765 0.044537179
0.016839989 0.22683136 0.041312493
0.032806844 0.24866758 0.014672186
0.031317487 0.24856028 0.014821612
0.033002548 0.24602731 0.014830207
0.03695409 0.23396932 0.015106094
0.019175835 0.22945848 0.025590537
0.027949892 0.2425669 0.017527275
0.020459421 0.23968293 0.019051019
0.028576571 0.23271039 0.019286951
0.019343399 0.23397708 0.022611393
0.01043494 0.2259867 0.048012204
0.0012657791 0.22532777 0.049196426
0.009747982 0.22841117 0.042437043
0.00022853911 0.22798872 0.043361329
-0.0057672635 0.22443618 0.04822341
-0.0091863871 0.22567946 0.042346276
-0.015039951 0.22410634 0.038711578
0.013717994 0.23032314 0.025101552
0.012742251 0.23228484 0.022284815
-0.016496249 0.22413869 0.035888113
0.016974449 0.21959561 0.044786021
0.019173194 0.20905006 0.045219157
0.018546518 0.22100542 0.040163007
0.026662648 0.20707828 0.034263872
0.021911129 0.21107484 0.038775489
0.056174889 0.19856215 0.040414274
0.053528011 0.19211686 0.044650286
0.043187637 0.19078867 0.042966228
0.052539997 0.20057228 0.034574989
0.041484166 0.19916791 0.034033708
0.049558531 0.1968013 0.0387557
0.042711273 0.19580856 0.038683724
0.02173103 0.20034024 0.047316555
0.033496305 0.1900807 0.043791316
0.023224309 0.19041166 0.046171356
0.031416871 0.19979876 0.035619088
0.026130922 0.20162761 0.040178318
0.032121811 0.19499984 0.039827555
0.026932109 0.19451028 0.040422268
0.03445705 0.22807762 0.013574042
0.021137767 0.22231331 0.027600054
0.026604332 0.20791733 0.030685104
0.023353219 0.21346124 0.029258538
0.027979422 0.22513475 0.01875071
0.023423914 0.22202696 0.022182634
0.050352659 0.20296282 0.028377058
0.041743398 0.20197988 0.028681435
0.031423718 0.20339894 0.028384425
0.011989452 0.21969515 0.050508611
0.0017404482 0.22210743 0.053601138
0.013587236 0.20963868 0.049565352
-0.0091414303 0.21948242 0.051858071
-0.014240645 0.21553801 0.04979549
-0.014712177 0.20901568 0.053420953
-0.012921169 0.22247984 0.044550315
-0.01677525 0.2186739 0.042239994
-0.017379403 0.20901403 0.039467074
0.016094156 0.2020447 0.051891878
0.015564673 0.18797907 0.049703054
-0.016754672 0.19819789 0.053803269
-0.015883513 0.18709475 0.053936474
-0.01907254 0.19851926 0.040439226
-0.019479744 0.19200757 0.039230071
-0.019062549 0.21690413 0.03625723
-0.017861471 0.20844114 0.035573851
-0.018764302 0.188118 0.033457052
0.10124488 0.18144937 0.046633855
0.11044624 0.17192657 0.044367887
0.10426462 0.17505409 0.047895696
0.11117712 0.16622174 0.044516031
0.1057468 0.16548482 0.048943251
0.11159201 0.15795635 0.043766521
0.10635902 0.15556638 0.048227243
0.092170782 0.17057219 0.056111921
0.085199304 0.17143536 0.058130477
0.093707234 0.18329194 0.049045783
0.084223688 0.18362075 0.049603246
0.095639415 0.17498338 0.052495208
0.085743576 0.17636262 0.054153647
0.075799659 0.17163482 0.060443882
0.066450201 0.17045511 0.061020833
0.074441545 0.18348265 0.050813846
0.064459756 0.18278515 0.051075444
0.075192325 0.17711186 0.053552005
0.064495169 0.17578505 0.053528614
0.094577283 0.16330218 0.056225102
0.086553812 0.16350639 0.060440842
0.096467011 0.15444428 0.056241415
0.087235965 0.15347554 0.06004693
0.098407805 0.16602936 0.053467683
0.10111587 0.15373179 0.053025313
0.076816142 0.16265151 0.062735014
0.066733018 0.16185683 0.063602798
0.077371068 0.1526372 0.063006863
0.067436479 0.1520981 0.062928557
0.11168989 0.14695761 0.042218748
0.1068767 0.14570485 0.04543082
0.10605094 0.13667262 0.04453814
0.10338721 0.12626839 0.04188963
0.095226727 0.14487182 0.054974731
0.087759241 0.1435982 0.058832768
0.093849175 0.136329 0.053292882
0.088308685 0.13376638 0.056086149
0.099784173 0.14396399 0.05122016
0.098400213 0.13447765 0.050283328
0.093095109 0.13009311 0.052212972
0.078102268 0.14262822 0.060994852
0.068029396 0.14220092 0.060223684
0.078512199 0.13268825 0.05821443
0.068440124 0.13255954 0.057253607
0.06467744 0.12792812 0.054119054
0.087158792 0.12684621 0.054022569
0.098197907 0.12489823 0.045095008
0.089320026 0.12282852 0.048941225
0.098231234 0.11798113 0.044404414
0.088898011 0.11696535 0.047336228
0.079012133 0.12615831 0.055049196
0.068364076 0.12239985 0.054778554
0.067432575 0.11533042 0.054521877
0.078610577 0.12144924 0.050619639
0.068985023 0.12268705 0.05249792
0.079100646 0.11623285 0.049994525
0.071998626 0.11556506 0.05256737
0.11903474 0.17518283 0.025907869
0.11005851 0.18460608 0.036547411
0.10396513 0.18633474 0.041644748
0.11250037 0.1763882 0.0388573
0.10800626 0.17863786 0.043019012
0.11190169 0.18703808 0.031493332
0.10772259 0.19094943 0.034882449
0.11643182 0.17781511 0.030436652
0.12014169 0.16757789 0.027059959
0.13033095 0.15431195 0.021605795
0.12173606 0.15784262 0.025657512
0.11487501 0.16662218 0.038663782
0.11536543 0.15660454 0.038175508
0.11846231 0.16795084 0.031242203
0.1193039 0.1574969 0.030826958
0.11856666 0.17785713 0.018830312
0.11853531 0.17888717 0.012242762
0.11379593 0.18722868 0.022193708
0.11690845 0.18146557 0.02116644
0.12068546 0.16917089 0.018443758
0.13148063 0.15498412 0.019066548
0.1250053 0.15568799 0.019083196
0.12080712 0.16849273 0.01217743
0.095145479 0.18792753 0.045144033
0.08670368 0.18827632 0.046384729
0.12505813 0.13811249 0.03190697
0.13330396 0.1483756 0.024708776
0.12554939 0.1483562 0.027473001
0.13392591 0.13928255 0.024854667
0.12941056 0.13807967 0.029369187
0.11507849 0.14695904 0.038035769
0.11161406 0.14414039 0.041910514
0.11662142 0.13675192 0.034238949
0.10978389 0.13430664 0.039981514
0.11948055 0.14716083 0.02991733
0.11949264 0.14156953 0.030833954
0.12379283 0.13078158 0.031430092
0.13275921 0.13231482 0.021616539
0.12689854 0.1288422 0.025647715
0.11699526 0.12873435 0.032018378
0.10754365 0.1264703 0.037133802
0.10539553 0.11973383 0.035005953
0.11755201 0.1241575 0.028485559
0.11124665 0.12341741 0.029887857
0.11565979 0.12107034 0.025276665
0.10949203 0.11950596 0.02734663
0.13593917 0.15058865 0.017861964
0.12311259 0.15308848 0.021342518
0.13689643 0.14044313 0.01811434
0.13360474 0.1316067 0.018622324
0.12876199 0.12713251 0.018700814
0.10274836 0.12661231 0.041304506
0.10264637 0.11773078 0.039748587
0.058349669 0.16873553 0.059848543
0.054893404 0.18148333 0.05074016
0.045457572 0.17865163 0.050425246
0.054619879 0.17278799 0.053345285
0.045275673 0.17152959 0.052638501
0.03324607 0.17799127 0.050955184
0.024408534 0.17728764 0.051650498
0.035204716 0.17084503 0.051884621
0.025292713 0.17009528 0.053720314
0.057073329 0.16123913 0.062030714
0.051488198 0.15757707 0.057704482
0.058070399 0.15191397 0.060945727
0.051951796 0.1642476 0.05679442
0.045909204 0.16156255 0.05223529
0.053150624 0.14972082 0.053871792
0.04634067 0.15159701 0.049553089
0.035966847 0.16084743 0.052052654
0.026143309 0.15993595 0.054372665
0.036480956 0.1507085 0.050620176
0.026620429 0.15013805 0.051749215
0.015289612 0.17652655 0.052474625
0.0038668662 0.18133894 0.056785632
0.015467376 0.16928273 0.054163724
0.007130526 0.16821271 0.052777
-0.0039331391 0.18194006 0.057456214
0.016067557 0.15914027 0.054658003
0.0074568316 0.1593488 0.052689552
0.017005868 0.15013465 0.051648706
0.0096141621 0.15235347 0.051185153
0.06055475 0.14270893 0.058174834
0.062305249 0.13411875 0.055898663
0.055629037 0.14151531 0.051267855
0.044827182 0.14247346 0.047818489
0.058109902 0.13186014 0.050392307
0.043136612 0.13530274 0.046953678
0.037710443 0.14109942 0.048725609
0.030053101 0.14464134 0.04848754
0.039051231 0.13377333 0.04719834
0.059157848 0.11985334 0.05666174
0.051928625 0.11804964 0.055908326
0.059585318 0.11465591 0.057560917
0.051116131 0.11408375 0.056761108
0.058353193 0.12506598 0.051500827
0.048568316 0.1214903 0.050453115
0.045852937 0.11404166 0.052524734
0.038376667 0.11900388 0.047441572
0.028649904 0.11807458 0.050020501
0.038967684 0.11341019 0.049031314
0.029287215 0.11247437 0.05233591
0.021156445 0.11712806 0.049879182
0.020295899 0.11180992 0.051105816
0.051606562 0.18565838 0.048312768
0.043556143 0.18357775 0.047595598
0.034843277 0.18271729 0.048207097
0.024335757 0.18249232 0.049267221
0.01401329 0.18147939 0.049987942
0.0046214163 0.17806564 0.049705241
0.002250351 0.16962774 0.050168417
-0.0031371638 0.17700729 0.044982083
-0.0035808086 0.1685645 0.04575628
-0.0082830116 0.17768961 0.039056666
-0.011996813 0.17525074 0.033990007
-0.0090137348 0.16890991 0.040374018
-0.012189843 0.16840219 0.035729486
0.0025195107 0.15790775 0.049857248
0.013877109 0.14610618 0.04839652
0.0058309734 0.14868335 0.046595272
0.0014336035 0.14506012 0.038967259
-0.002731055 0.15889311 0.045765147
-0.0012603775 0.1514177 0.043347232
-0.0080289021 0.15864423 0.038792647
-0.011559986 0.1612494 0.034841359
-0.003730312 0.14950788 0.03672687
-0.011569105 0.18013379 0.03207501
-0.012754701 0.17722675 0.030596703
-0.013965242 0.17068091 0.030608959
-0.0099496543 0.15547597 0.030322023
-0.013110854 0.16135016 0.031281766
-0.0060806498 0.14884537 0.028784927
-0.0064036921 0.14813437 0.018034082
0.052460518 0.13946566 0.045437172
0.048723117 0.14121982 0.04544941
0.053225029 0.13193983 0.044449408
0.047626119 0.13175403 0.043709684
0.033237919 0.13853233 0.046655595
0.026693869 0.14057285 0.044831924
0.036953479 0.12980594 0.045669913
0.02970282 0.13097331 0.041582193
0.022922534 0.13633706 0.037567526
0.024674509 0.13286528 0.034010336
0.045725852 0.12504275 0.044254057
0.038170602 0.12391758 0.045461319
0.028818861 0.12327123 0.043780982
0.02612206 0.125255 0.036317401
0.023496628 0.12975982 0.019771524
0.021535762 0.1294995 0.015951945
0.023083307 0.12451351 0.01866222
0.021536831 0.12588103 0.016686909
0.017057404 0.14138189 0.04424024
0.0085213184 0.14266697 0.042360365
0.015380874 0.13692334 0.035543844
0.006859377 0.1399084 0.034708012
0.017200395 0.13459328 0.030992711
0.01083497 0.13531536 0.028968444
-0.00087123364 0.14415324 0.031344675
0.018071946 0.1181712 0.045092538
0.0151079 0.1123206 0.04509601
0.013136961 0.11040802 0.040545471
0.0048328042 0.1384441 0.028205119
0.016410507 0.13340859 0.02704348
0.010276549 0.1352594 0.028114147
0.019649606 0.12962636 0.01157748
-0.0020927116 0.14367336 0.02809152
0.015764028 0.1194113 0.018522963
0.01111535 0.1167129 0.017995037
0.012288965 0.11485995 0.020546326
0.010369562 0.11279678 0.019347519
0.016409248 0.12250137 0.015155677
0.0095615387 0.11805303 0.015930764
0.0074758381 0.11415803 0.016266396
0.050095335 0.26303887 -0.00569274
0.052164972 0.25408298 -0.0055585634
0.052929245 0.24138366 0.003370353
0.053044014 0.23943092 0.0035327123
0.054864123 0.2463897 -0.0026388625
0.05452108 0.23998517 0.0010017529
0.052407876 0.26373059 -0.0098439483
0.055232175 0.2568908 -0.010107785
0.058350753 0.24986659 -0.0088962428
0.042018872 0.26074713 0.0049207984
0.040365219 0.26042849 0.0052107191
0.042105079 0.25745705 0.0053629708
0.037170116 0.25325274 0.0093265884
0.046647113 0.26321268 -0.00060860813
0.046260785 0.25510931 -0.0007280428
0.041096579 0.25032979 0.0037781084
0.02940841 0.24992716 0.012461028
0.046035133 0.2422311 0.0052398224
0.037411992 0.24387665 0.0088857375
0.046927538 0.237073 0.0088685937
0.039475292 0.23492488 0.011829321
0.047118336 0.2470566 0.0008778004
0.041290011 0.24920781 0.0036263727
0.027544849 0.24451439 0.013863825
0.021132104 0.24337421 0.014868936
0.032473512 0.23815171 0.013762295
0.0030411109 0.2330476 0.0070910864
-0.0016356632 0.23310092 0.01002552
0.0024767816 0.23870321 -0.0017687045
-0.0030509531 0.23913456 0.00071391463
0.0028554723 0.23606426 0.002277025
-0.0042181239 0.23542829 0.004507158
-0.0085438564 0.23719388 -0.0025003236
-0.0081747249 0.23338965 0.0015366441
-0.0073406696 0.24940585 -0.020590212
-0.011230268 0.24856995 -0.021591267
0.0018045232 0.24214177 -0.0087602045
-0.0044455379 0.24366394 -0.0078961905
0.0011443794 0.24472775 -0.014465533
-0.0065085441 0.24670154 -0.014900398
-0.0099564642 0.23986341 -0.0089509748
-0.009478569 0.23562242 -0.004600836
-0.011337884 0.24503013 -0.017181955
0.035654258 0.22825871 0.012240554
-0.00055325776 0.25121543 -0.030534657
-0.0064076632 0.25325137 -0.027886096
-0.0047818497 0.25991929 -0.037262857
-0.000258632 0.25622892 -0.03745769
-0.0050973594 0.25751477 -0.034342863
-0.012187503 0.25181842 -0.026559051
