# .PCD v0.7 - Point Cloud Data file format
VERSION 0.7
FIELDS x y z
SIZE 4 4 4
TYPE F F F
COUNT 1 1 1
WIDTH 220
HEIGHT 1
VIEWPOINT 0 0 0 1 0 0 0
POINTS 220
DATA ascii
0.2618683 0 0
0.23598622 0.018518519 0.018412856
0.21542533 0.037037037 0.036196072
0.19700167 0.055555556 0.052741542
0.1793666 0.074074075 0.067483477
0.16249448 0.09259259 0.079917766
0.14649306 0.11111111 0.089619219
0.1314856 0.12962963 0.096256085
0.11800964 0.14814815 0.09960141
0.10627577 0.16666667 0.099540792
0.095726058 0.18518518 0.096076325
0.086137742 0.2037037 0.089326456
0.077171393 0.22222222 0.079521999
0.068787947 0.24074075 0.066998243
0.061007451 0.25925925 0.05218346
0.054010641 0.27777779 0.035584185
0.047754258 0.2962963 0.017768109
0.04215797 0.31481481 -0.00065553596
0.037152704 0.33333334 -0.019056812
0.032678664 0.35185185 -0.036806382
0.028683878 0.37037036 -0.053297356
0.025122928 0.3888889 -0.067965791
0.021955969 0.4074074 -0.080310076
0.019137207 0.42592594 -0.089908138
0.016587136 0.44444445 -0.096431717
0.014241778 0.46296296 -0.099657737
0.012085292 0.48148149 -0.099475905
0.010127963 0.5 -0.095892429
0.0083744582 0.51851851 -0.089029856
0.0067965016 0.53703701 -0.079122856
0.0053896443 0.55555558 -0.066510133
0.0041495762 0.57407409 -0.051623113
0.0030721382 0.5925926 -0.034970772
0.0021732643 0.6111111 -0.017122623
0.0014556401 0.62962961 0.0013110437
0.00088436273 0.64814812 0.019699879
0.00044764121 0.66666669 0.037415154
0.0001472009 0.68518519 0.0538509
0 0.7037037 0.068445183
2.8663799e-05 0.72222221 0.080698974
0.00026614798 0.74074072 0.090193182
0.00073131552 0.75925928 0.0966032
0.0014744347 0.77777779 0.099709786
0.0025484858 0.7962963 0.099406742
0.004015225 0.81481481 0.095704429
0.0059407689 0.83333331 0.088729426
0.0083649782 0.85185188 0.078720249
0.011356608 0.87037039 0.066019177
0.015023956 0.8888889 0.051060531
0.019546311 0.9074074 0.03435592
0.025265677 0.92592591 0.0164764
0.032836832 0.94444442 -0.0019665428
0.043834809 0.96296299 -0.020342238
0.061845049 0.98148149 -0.038022228
0.15132776 1 -0.054402109
0.34258369 1 -0.054402109
0.41924065 0.98148149 -0.038022228
0.58897847 0.96296299 -0.020342238
0.79374248 0.94444442 -0.0019665428
0.85289252 0.92592591 0.0164764
0.88434827 0.9074074 0.03435592
0.90612453 0.8888889 0.051060531
0.92375213 0.87037039 0.066019177
0.9383359 0.85185188 0.078720249
0.95078009 0.83333331 0.088729426
0.96137315 0.81481481 0.095704429
0.97035372 0.7962963 0.099406742
0.9777773 0.77777779 0.099709786
0.98388577 0.75925928 0.0966032
0.98879784 0.74074072 0.090193182
0.99261862 0.72222221 0.080698974
0.9954412 0.7037037 0.068445183
0.99734282 0.68518519 0.0538509
0.99836522 0.66666669 0.037415154
0.99906462 0.64814812 0.019699879
0.99955368 0.62962961 0.0013110437
0.99986094 0.6111111 -0.017122623
1 0.5925926 -0.034970772
0.99998313 0.57407409 -0.051623113
0.99980038 0.55555558 -0.066510133
0.99945331 0.53703701 -0.079122856
0.99897438 0.51851851 -0.089029856
0.99835813 0.5 -0.095892429
0.99758673 0.48148149 -0.099475905
0.99659848 0.46296296 -0.099657737
0.99541795 0.44444445 -0.096431717
0.99403375 0.42592594 -0.089908138
0.99242485 0.4074074 -0.080310076
0.99056482 0.3888889 -0.067965791
0.98835915 0.37037036 -0.053297356
0.98559433 0.35185185 -0.036806382
0.98212183 0.33333334 -0.019056812
0.97785318 0.31481481 -0.00065553596
0.9726848 0.2962963 0.017768109
0.96649384 0.27777779 0.035584185
0.95894098 0.25925925 0.05218346
0.94836944 0.24074075 0.066998243
0.93344718 0.22222222 0.079521999
0.9140386 0.2037037 0.089326456
0.88825113 0.18518518 0.096076325
0.8574475 0.16666667 0.099540792
0.8254683 0.14814815 0.09960141
0.7929576 0.12962963 0.096256085
0.75959456 0.11111111 0.089619219
0.71776718 0.09259259 0.079917766
0.663634 0.074074075 0.067483477
0.59795892 0.055555556 0.052741542
0.53159815 0.037037037 0.036196072
0.47132188 0.018518519 0.018412856
0.4157775 0 0
0.32679611 0.11609034 0.043554973
0.30137572 0.13121824 0.065390728
0.28108665 0.14706731 0.085862398
0.26272285 0.16318697 0.10481093
0.24488378 0.17938036 0.12186372
0.22747487 0.1956342 0.13652515
0.21054313 0.21195512 0.14835915
0.19416375 0.22835365 0.15702006
0.17883259 0.2448995 0.16220832
0.16474035 0.26161948 0.16378134
0.15134025 0.27843672 0.16181882
0.1384301 0.29532284 0.15646908
0.12570891 0.3122355 0.1480079
0.11318456 0.32917583 0.13677278
0.10093573 0.34615487 0.12318502
0.089209467 0.3632074 0.10772105
0.078041598 0.38033831 0.090949081
0.067437306 0.3975485 0.073483586
0.057415664 0.41484058 0.055957988
0.048004784 0.43221849 0.039003823
0.039237328 0.44968683 0.023229305
0.031146485 0.46725023 0.0091992095
0.023762316 0.48491293 -0.0025841817
0.01709808 0.5026769 -0.01169654
0.01112105 0.52053738 -0.017801732
0.0057992339 0.53848988 -0.020669945
0.0011322945 0.55653459 -0.020189762
-0.0028705299 0.57467252 -0.016368747
-0.0062215552 0.59290206 -0.0093289241
-0.0089808628 0.6112147 0.000701271
-0.011199482 0.62960351 0.013387047
-0.0129411 0.64805925 0.028301768
-0.014279939 0.6665715 0.044942003
-0.015278876 0.68513167 0.062741548
-0.016019374 0.70372808 0.081095695
-0.016622543 0.72234386 0.099385083
-0.01718659 0.74096507 0.11698873
-0.017793342 0.75958025 0.13330634
-0.018503606 0.77818102 0.14777908
-0.01936397 0.79676056 0.15990964
-0.020399891 0.81531549 0.16927838
-0.021637596 0.8338421 0.17556128
-0.023058005 0.85234296 0.17853421
-0.024623796 0.87082344 0.17808464
-0.026272997 0.88929212 0.17421423
-0.027923316 0.90776074 0.16703913
-0.029502794 0.92623931 0.15678996
-0.030896835 0.94474387 0.14379615
-0.031939372 0.9632979 0.12847269
-0.032384098 0.9819358 0.11130124
-0.03181693 1.0007161 0.092799746
-0.029511482 1.0197406 0.073482588
-0.02383633 1.0392387 0.053755105
-0.011188842 1.0597167 0.033740632
0.071725942 1.0900702 0.0050665736
0.25927737 1.1164289 -0.02155111
0.33928427 1.1089725 -0.015999228
0.51074839 1.1143698 -0.022114232
0.71665609 1.1246076 -0.03241501
0.77977943 1.1147785 -0.022383645
0.81566733 1.1011218 -0.0090559274
0.8419013 1.0861082 0.0044554397
0.86382633 1.070489 0.01681523
0.88245529 1.0544066 0.027363025
0.89861524 1.0379773 0.035542905
0.91254163 1.0212339 0.040975749
0.92443585 1.0042051 0.043392181
0.9343347 0.98689574 0.042659104
0.94247389 0.96933913 0.038732626
0.94898474 0.95155364 0.031701356
0.95400035 0.93355805 0.021767795
0.95765668 0.91537142 0.0092404336
0.96008742 0.89701247 -0.0054764748
0.96140212 0.87849677 -0.021894559
0.96222377 0.85991174 -0.03953477
0.96274626 0.84128463 -0.057812706
0.9630844 0.82263166 -0.076109737
0.9633382 0.80396682 -0.09380354
0.96360391 0.78530371 -0.11029147
0.96395034 0.76665187 -0.12500818
0.96444899 0.74802136 -0.13744986
0.96519125 0.72942519 -0.14719379
0.96621841 0.71086907 -0.1539038
0.96754533 0.69235504 -0.15734507
0.96912843 0.673877 -0.15738758
0.97099268 0.65543854 -0.15402867
0.97311169 0.63703579 -0.14737593
0.97543401 0.61866164 -0.13764735
0.97788858 0.60030609 -0.12516434
0.98032445 0.58194792 -0.11033167
0.98246324 0.56354809 -0.093616411
0.98408157 0.545075 -0.075556293
0.98500884 0.52650476 -0.056740016
0.985057 0.50781101 -0.037776381
0.98401856 0.48896462 -0.019272074
0.98147702 0.46990687 -0.0017831773
0.97572923 0.45039856 0.014358692
0.96539932 0.43024629 0.028837353
0.95029521 0.40942305 0.041247547
0.92851472 0.38766146 0.051520646
0.90136254 0.36514497 0.059238434
0.87258834 0.34240049 0.063749112
0.84282362 0.31951684 0.064960949
0.81176937 0.29645196 0.063031912
0.77199239 0.27216113 0.059246115
0.71977133 0.24612145 0.054466724
0.65591389 0.21844636 0.049008466
0.59113544 0.19064182 0.041859642
0.53215313 0.1636519 0.032638334
0.47772422 0.13730191 0.022134952
