# .PCD v0.7 - Point Cloud Data file format
VERSION 0.7
FIELDS x y z
SIZE 4 4 4
TYPE F F F
COUNT 1 1 1
WIDTH 1427
HEIGHT 1
VIEWPOINT 0 0 0 1 0 0 0
POINTS 1427
DATA ascii
-0.038636401 0.55402201 0.65560305
-0.038256366 -0.60171586 0.68486536
-0.038468201 -0.602373 0.73712599
-0.038317002 0.90684301 0.71032304
-0.035598848 -0.5926013 0.78930056
-0.036158718 -0.54529649 0.86980224
-0.0374709 -0.64275002 0.70542699
-0.03716414 -0.62630647 0.68423742
-0.037195399 0.59607202 0.713166
-0.037185598 -0.56389898 0.67577302
-0.037122201 0.94551396 0.66574895
-0.036858901 0.48077202 0.48328301
-0.036749102 -0.435835 0.50267899
-0.035021376 -0.51639062 0.88984156
-0.03497389 -0.60568517 0.80514038
-0.027909702 -0.53074509 0.66899264
-0.035718217 -0.59851289 0.74686074
-0.034868006 -0.62354952 0.72785324
-0.03453365 -0.56658638 0.67697883
-0.035902999 0.083651692 0.36727402
-0.035827402 0.45129901 0.716492
-0.033483099 -0.56643045 0.69780219
-0.035119899 -0.58522791 0.68992752
-0.035256799 -0.62126303 0.67840403
-0.033205412 -0.55227834 0.66781181
-0.032479942 -0.66070044 0.6876201
-0.03237763 -0.48876315 0.89677626
-0.034532599 0.50531697 0.70574796
-0.034393597 -0.54471201 0.68506104
-0.028534139 -0.59413171 0.77645093
-0.03429484 -0.59953773 0.79131484
-0.034196101 0.91748703 0.64056998
-0.033993699 0.392378 0.45530498
-0.032260433 -0.66752821 0.6997239
-0.030288151 -0.56961703 0.78144163
-0.033340201 0.54858899 0.70715106
-0.030814931 -0.57278872 0.79357749
-0.032994002 -0.44748297 0.52971804
-0.032915998 -0.60362798 0.68142802
-0.032652602 -0.54865003 0.86819702
-0.032611202 -0.53296602 0.69816202
-0.033399329 -0.53544402 0.69997197
-0.030618498 -0.65546769 0.67856652
-0.032430697 -0.59296799 0.75941002
-0.031710722 -0.6562655 0.71309739
-0.031689402 -0.60349202 0.81502801
-0.031621203 0.43613997 0.4648
-0.031231001 -0.50609499 0.65065497
-0.030955929 -0.59068608 0.78490579
-0.031390656 -0.58043391 0.66649318
-0.031052999 0.13369501 0.37391898
-0.029813793 -0.60644746 0.79571694
-0.0307994 -0.51597804 0.88918197
-0.0306629 -0.62278003 0.67655295
-0.030606799 0.26058701 0.414911
-0.029027982 -0.60015982 0.78011489
-0.0305019 0.17563601 0.38504502
-0.0304226 -0.12469599 0.36505798
-0.030342255 -0.588045 0.77928889
-0.030343499 -0.326646 0.40688097
-0.030336101 0.219568 0.39958
-0.030321501 -0.620992 0.74285799
-0.028792823 -0.57320273 0.66011542
-0.030080099 0.94204402 0.70706004
-0.02875632 -0.57923418 0.67018044
-0.029806999 -0.30043802 0.39213797
-0.029438801 0.290535 0.42490602
-0.029307101 -0.51327097 0.66549796
-0.0292242 -0.50202799 0.63665402
-0.029116901 -0.0569074 0.74027395
-0.0290682 -0.49766299 0.59502798
-0.028773101 -0.604182 0.68241799
-0.0287585 -0.46252102 0.55503297
-0.028643899 -0.084451601 0.744699
-0.028639 -0.64314002 0.67429298
-0.0284147 -0.63821501 0.73296303
-0.027862156 -0.68331808 0.70071608
-0.028253701 -0.51573396 0.61542302
-0.028229401 -0.60531598 0.75970495
-0.027435483 -0.59211463 0.66178131
-0.0281318 -0.58788604 0.83529603
-0.028070901 -0.47792599 0.57697701
-0.0270993 -0.66153163 0.72061837
-0.027951401 -0.59750098 0.82117999
-0.027986264 -0.5898419 0.69179642
-0.026801618 -0.59720218 0.77201217
-0.027509999 0.96750605 0.68698698
-0.027397899 0.33327597 0.43873599
-0.027310099 -0.114537 0.74826401
-0.026246626 -0.57257318 0.78661025
-0.026157394 -0.67906982 0.6853922
-0.027100401 -0.35364398 0.42262799
-0.0270248 -0.54347098 0.68533206
-0.026895599 -0.48111802 0.896999
-0.0265591 -0.60794902 0.76987296
-0.026395701 -0.158298 0.75428003
-0.026366401 -0.56848401 0.85448098
-0.0263128 -0.38096601 0.43742698
-0.02609814 -0.60670221 0.78295952
-0.0259251 0.96679902 0.67105502
-0.025769001 -0.62325001 0.67703903
-0.025661699 -0.54522401 0.87233704
-0.025617801 0.94708902 0.65061402
-0.025493501 -0.66258401 0.67544401
-0.025464201 -0.51496798 0.89036006
-0.025361801 -0.058277704 0.36746898
-0.0252716 -0.54697001 0.66292
-0.025234999 -0.0169542 0.73080802
-0.025280213 -0.60972357 0.64556831
-0.025152098 0.025200902 0.72294402
-0.025149301 -0.17671199 0.35830298
-0.024813199 -0.200415 0.76448995
-0.024749801 -0.62152404 0.75203699
-0.024730301 0.732135 0.74224401
-0.023629637 -0.68749708 0.7117334
-0.0243349 -0.234823 0.36763
-0.024135301 -0.39895901 0.45091099
-0.022009021 -0.61276895 0.80172622
-0.023935299 0.78126097 0.73993498
-0.0236452 0.16633499 0.72844005
-0.0235232 -0.55187303 0.69201303
-0.022514576 -0.68910909 0.6919117
-0.023233099 -0.64401299 0.67345202
-0.023206301 -0.24948201 0.789029
-0.0229405 0.68706101 0.73889601
-0.021740418 -0.6541369 0.73452681
-0.022696599 -0.54507303 0.686961
-0.0226088 -0.56783301 0.68688697
-0.022326 -0.53981799 0.71727699
-0.022326 0.277551 0.73311895
-0.0223065 0.122969 0.72597295
-0.0222016 0.070616104 0.71963
-0.022191899 0.22388901 0.729186
-0.0221748 -0.525056 0.71866
-0.022060201 -0.58339697 0.67668504
-0.022043521 -0.56720293 0.6548329
-0.021478659 -0.61867541 0.76378638
-0.021701802 -0.62565702 0.68208605
-0.021677401 -0.52277303 0.71543401
-0.0216091 -0.27978399 0.80375701
-0.021589601 0.82715899 0.73299497
-0.01708849 -0.60121763 0.63497436
-0.021433499 0.39265999 0.453852
-0.021251749 -0.62507313 0.63816983
-0.014533142 -0.68124914 0.67261696
-0.0212385 0.96788102 0.701406
-0.0211409 -0.59777099 0.66191101
-0.020992201 0.79426497 0.612409
-0.019427158 -0.69676393 0.70593238
-0.0209556 0.74328303 0.61487204
-0.018173743 -0.57433474 0.67107737
-0.01986674 -0.61283642 0.78478378
-0.0206654 -0.62636399 0.64090896
-0.020485532 -0.59211987 0.68057793
-0.0205874 0.84161597 0.61470598
-0.020546 -0.410961 0.466061
-0.020191258 -0.61314249 0.64606178
-0.0204923 0.69278097 0.62339097
-0.020397201 0.33433899 0.73708397
-0.0203094 -0.31511399 0.82472003
-0.0198339 -0.348647 0.849334
-0.019411007 -0.60844231 0.6647222
-0.0197486 0.43629101 0.46529302
-0.019144235 -0.57452339 0.69128364
-0.016494038 -0.69571406 0.69562012
-0.019136682 -0.55432308 0.69714808
-0.019316999 -0.61515701 0.65250605
-0.0192219 -0.665878 0.67170095
-0.0190976 0.47688499 0.48713902
-0.019009801 -0.416242 0.88288802
-0.018929301 0.64537102 0.73392403
-0.0189049 0.86641198 0.728104
-0.016896684 -0.69781595 0.71322745
-0.018851301 0.64131898 0.63347697
-0.015437075 -0.6470989 0.68123633
-0.018653801 -0.56259 0.678482
-0.0185026 0.883569 0.62198901
-0.0184489 -0.57253098 0.70790601
-0.018336801 0.50349998 0.52239001
-0.016745126 -0.70791936 0.70500678
-0.01813801 -0.60257411 0.65424991
-0.017802885 -0.62799919 0.76608217
-0.01791 0.52523601 0.55862302
-0.017873501 -0.42607898 0.480955
-0.017868601 0.50675797 0.72135699
-0.017736901 -0.38369399 0.86957002
-0.017062329 -0.59065694 0.66536003
-0.0166936 -0.62189013 0.65607852
-0.011906968 -0.69290751 0.72260666
-0.0173638 -0.44892201 0.89474404
-0.017312599 0.53056902 0.611687
-0.0172712 0.58694196 0.64536101
-0.01540364 -0.66437566 0.74118429
-0.0170469 0.595155 0.72724503
-0.0168518 0.398049 0.73364401
-0.016720099 0.450811 0.72531897
-0.015514681 -0.70958346 0.69809675
-0.016498201 0.55284399 0.64770502
-0.01633225 -0.61730868 0.68953019
-0.016191 0.96668899 0.65976
-0.013857155 -0.6326105 0.64574796
-0.0161325 -0.61121202 0.65231794
-0.0161325 0.54977101 0.72187102
-0.0108242 -0.68981802 0.67945015
-0.015878901 0.90413004 0.725214
-0.0158691 -0.590029 0.69851404
-0.015674001 0.52192199 0.64799005
-0.0149937 -0.439244 0.50307798
-0.0148864 0.91983497 0.63321298
-0.0145841 -0.66641998 0.67317599
-0.0143353 -0.60970503 0.80387902
-0.0141622 -0.47858003 0.90051299
-0.0140379 0.98618895 0.68783599
-0.013141827 -0.62621766 0.64027894
-0.0138647 -0.52658999 0.66806799
-0.012282405 -0.63626653 0.6505816
-0.0138184 -0.59048098 0.83364505
-0.012603242 -0.70122361 0.69253087
-0.013499 -0.51348299 0.65903097
-0.012748441 -0.70571756 0.69183737
-0.01275054 -0.64202327 0.63325357
-0.012923501 -0.59765702 0.82158995
-0.0128089 -0.542027 0.66181803
-0.0127797 -0.62412101 0.64756799
-0.012747999 0.98496497 0.67840695
-0.0088319061 -0.7157675 0.69718885
-0.0080062952 -0.51563239 0.64306796
-0.0121091 0.94085401 0.71979105
-0.0118116 -0.57099801 0.855681
-0.011817724 -0.63584119 0.62901247
-0.011572599 -0.51483202 0.892349
-0.011267846 -0.70725435 0.71550131
-0.010636105 -0.61570621 0.78634906
-0.0111581 -0.452786 0.52734298
-0.0109362 -0.54783499 0.87738299
-0.010785 0.94925004 0.64550799
-0.010380301 -0.56308496 0.65223801
-0.0075593577 -0.71852416 0.70641136
-0.010199799 0.987535 0.69618499
-0.0066784853 -0.70707983 0.7016288
-0.0097682299 -0.63273603 0.77039999
-0.0083192326 -0.62236017 0.62381136
-0.0072071292 -0.51759923 0.72028029
-0.0056502335 -0.71987557 0.7010681
-0.006329718 -0.59444118 0.6333515
-0.0053904862 -0.52031648 0.72304988
-0.00788147 -0.66329986 0.75060821
-0.0054122885 -0.63729209 0.63967603
-0.0080954898 0.96761101 0.70971799
-0.0079199299 -0.53680199 0.72070998
-0.0031786691 -0.69282454 0.67723542
-0.0069835801 -0.468795 0.54846197
-0.0021596127 -0.69678843 0.68332678
-0.0054842858 -0.69446874 0.7264902
-0.0065641701 -0.56989598 0.70712095
-0.0064666402 -0.60866404 0.80711001
-0.0063471501 -0.58765399 0.69903505
-0.0062642503 -0.57341897 0.69274902
-0.00620085 0.984999 0.67226195
-0.0061813402 -0.59383601 0.67931098
-0.00615696 -0.51471901 0.63013399
-0.0052466881 -0.70439476 0.69915253
-0.0012349656 -0.61017942 0.62412173
-0.0059887101 -0.606408 0.690799
-0.0059862696 -0.62663502 0.685085
-0.005601 -0.61269403 0.65834802
-0.0055254102 -0.64759499 0.68175006
-0.0030549732 -0.70329148 0.68602145
-0.0053230296 -0.669402 0.67600703
-0.0052986401 -0.55170298 0.70238799
-0.0052230502 -0.48787701 0.569188
-0.0052084201 -0.68491501 0.67324698
-0.003095486 -0.63154459 0.64557111
-0.0037078322 -0.64176881 0.63814974
-0.002812579 -0.6418159 0.64371389
-0.0038951207 0.9688893 0.65657806
-0.0048499797 -0.50759399 0.58897597
-0.0043190075 -0.64785737 0.62810785
-0.0047183 -0.524441 0.61127496
-0.0004262182 -0.64516592 0.62250322
-0.0021796399 -0.63978601 0.6326682
-0.0028891114 -0.61382598 0.78958011
-0.0033991302 -0.51936698 0.65624601
-0.003213017 -0.71595842 0.69654083
0.00018449991 -0.62466997 0.61952794
-0.00053928333 0.98992074 0.69987923
-0.0018824399 -0.53836203 0.65527397
0.0018459713 1.0002333 0.69188464
-0.00168249 -0.63489604 0.771878
-0.00026550679 -0.70865631 0.68924785
-0.00126065 -0.55982 0.65288401
0.0038174468 0.99854636 0.68317533
-0.00074783742 -0.66217023 0.75435579
0.0004524235 -0.59112352 0.6332804
0.0021879994 -0.72089392 0.70673561
-0.0028848082 -0.71467781 0.71479881
0.00035541851 -0.69041055 0.7316395
0.0019069449 -0.63980496 0.63639319
0.00034625002 -0.59212601 0.67614096
0.001355815 -0.55598056 0.69929034
0.00072415831 -0.6108368 0.65499306
0.0011620796 0.98671156 0.67113
-0.00090884283 -0.63232374 0.62003589
0.007976559 -0.6855728 0.67352569
0.0064275707 -0.67217422 0.67816687
0.0064539714 -0.64653093 0.6818974
0.010843792 -0.697294 0.68146193
0.015145086 -0.6925962 0.67677671
0.014856563 -0.64782691 0.62557662
0.0063569099 -0.64694899 0.62688601
0.010195285 -0.63377225 0.61953998
0.0063569099 -0.63396502 0.77108002
0.0065860213 -0.61124259 0.79132003
0.0076513398 -0.59311259 0.63256907
0.0063569099 -0.53741598 0.65666395
0.0063593499 -0.51927698 0.62733001
0.0063593499 -0.518601 0.64302498
0.0063617895 -0.58544999 0.83115798
0.0063642198 -0.56856704 0.85323697
0.0063642198 -0.545829 0.87506598
0.0063642198 -0.51453203 0.89138603
0.0063642198 -0.51306099 0.584916
0.0063642198 -0.49205002 0.565606
0.0063642198 -0.47740898 0.90123004
0.0063642198 -0.47135201 0.545412
0.0063642198 -0.45566899 0.52605999
0.0063642198 -0.45078 0.89709699
0.0063642198 -0.41811001 0.88461703
0.0063642198 -0.38616502 0.87197196
0.0063642198 -0.34751099 0.84637803
0.0063642198 -0.315249 0.82471299
0.0063642198 -0.27859199 0.80417705
0.0063642198 -0.24661699 0.78997099
0.0063642198 -0.195426 0.76412398
0.0063642198 -0.15536299 0.75236297
0.0063642198 -0.111174 0.74758905
0.0063642198 0.015771599 0.36412603
0.0063642198 0.061925601 0.36487499
0.0063642198 0.073617704 0.72461897
0.0063642198 0.124878 0.72973996
0.0063642198 0.13274699 0.371719
0.0063642198 0.16719101 0.73366094
0.0063642198 0.17578699 0.38015401
0.0063642198 0.22308399 0.73568201
0.0063642198 0.22456899 0.392755
0.0063642198 0.264447 0.40668401
0.0063642198 0.27954099 0.73876899
0.0063642198 0.29606599 0.41816601
0.0063642198 0.32830602 0.740206
0.0063642198 0.33561403 0.43305001
0.0063642198 0.39125597 0.45263803
0.0063642198 0.39293098 0.73657697
0.0063642198 0.43392798 0.46476102
0.0063642198 0.44648302 0.72906703
0.0063642198 0.47555101 0.490255
0.0063642198 0.49497101 0.53295398
0.0063642198 0.50581402 0.72530699
0.0063642198 0.51249099 0.56936401
0.0063642198 0.51884001 0.64660299
0.0063642198 0.52247101 0.61008
0.0063642198 0.54964 0.72675794
0.0063642198 0.55016398 0.645347
0.0063642198 0.58421099 0.64231402
0.0063642198 0.59404999 0.73170501
0.0063642198 0.64075106 0.62966996
0.0063642198 0.64335501 0.73822302
0.0063642198 0.68424398 0.74304903
0.0063642198 0.69255203 0.61987299
0.0063642198 0.72885698 0.74657202
0.0063642198 0.74305099 0.61061901
0.0063642198 0.77832705 0.74449205
0.0063642198 0.79242206 0.60819304
0.0063642198 0.82545 0.73695999
0.0063642198 0.84009904 0.61085302
0.0063642198 0.864869 0.73180997
0.0063642198 0.88313001 0.61897099
0.0063642198 0.902964 0.72891599
0.0063642198 0.92045403 0.63153303
0.0063642198 0.94016898 0.72284204
0.0063642198 0.95021302 0.64481002
0.0063642198 0.96727401 0.71141797
0.0087131793 0.9979918 0.68258429
0.010815236 1.0005221 0.69215012
0.0080875764 1.0012809 0.68904281
0.0063642301 -0.44081903 0.50457102
0.0063642301 -0.42709801 0.48436901
0.0063642301 -0.41377699 0.46937501
0.0063642301 -0.40293097 0.453381
0.0063642301 -0.38666198 0.43954602
0.0063642301 -0.36035401 0.42483002
0.0063642301 -0.33291501 0.41010502
0.0063642301 -0.30827001 0.39564499
0.0063642301 -0.24014099 0.364499
0.0063642301 -0.175438 0.353448
0.0063642301 -0.116973 0.362609
0.0063642301 -0.0829373 0.74492103
0.0063642301 -0.056807399 0.74184197
0.0063642301 -0.0292242 0.364216
0.0063642301 -0.0141817 0.735838
0.0063642301 0.0267078 0.72978103
0.0063666599 -0.593858 0.82156503
0.0063666599 -0.52943802 0.60858798
0.0063666599 -0.52039796 0.724253
0.0063666599 -0.51604801 0.72250003
0.0063691004 -0.60403597 0.81028998
0.0058018654 -0.57101655 0.68918777
0.0063691004 -0.53606498 0.72202003
0.0063691004 -0.521918 0.65577298
0.0062336084 -0.71998864 0.70161468
0.012206837 -0.71044648 0.71828789
0.0066685416 -0.70494646 0.68535924
0.0066387285 -0.66043746 0.75495702
0.010929383 -0.64104533 0.63673991
0.00637154 -0.64093804 0.64145499
0.00637154 -0.638098 0.63238204
0.00637154 -0.63095999 0.64410299
0.00637154 -0.62498599 0.683725
0.00637154 -0.604204 0.689704
0.011520613 -0.59218001 0.67563879
0.0085467733 -0.58105272 0.70152193
0.00637154 -0.55862498 0.654571
0.012938648 -0.56653738 0.69314176
0.013405168 -0.62475795 0.61973184
0.014363558 -0.61015558 0.62429953
0.014278119 -0.64555007 0.62343556
0.012975859 -0.70659781 0.68726325
0.015592583 -0.71579903 0.69636828
0.016161643 -0.64710927 0.62861842
0.013538888 -0.63236982 0.64475906
0.01487014 0.98747575 0.6724928
0.012352901 -0.61126798 0.654742
0.016092209 -0.64192611 0.63815767
0.014543167 -0.63994265 0.63257468
0.016949715 -0.6415531 0.64429361
0.012684233 -0.68608385 0.73499137
0.018033244 -0.72010893 0.70144385
0.01502861 -0.72067851 0.70769852
0.012708872 -0.59157699 0.6330955
0.013349506 -0.66124177 0.75509405
0.0139891 -0.55982 0.65288401
0.0144109 -0.63489604 0.771878
0.0146109 -0.53836203 0.65527397
0.0152132 0.98813003 0.70038903
0.015421387 -0.61387074 0.78954965
0.019055275 -0.70506215 0.70140082
0.0157691 -0.51705098 0.64316702
0.016127599 -0.51936698 0.65624601
0.018568246 -0.63682866 0.64000046
0.017773015 -0.51732463 0.72080892
0.017446801 -0.524441 0.61127496
0.017578401 -0.50759399 0.58897597
0.0176613 0.96777201 0.65605402
0.022424357 -0.70849359 0.71632934
0.019032875 -0.69039619 0.72906691
0.0179515 -0.48787701 0.569188
0.017953901 -0.68491501 0.67324698
0.0180368 -0.55170298 0.70238799
0.017917765 -0.70220912 0.68735033
0.018071001 -0.669402 0.67600703
0.0182709 -0.64759499 0.68175006
0.0183465 -0.61269403 0.65834802
0.019314798 -0.52033311 0.72284204
0.0187342 -0.62663502 0.685085
0.0187367 -0.606408 0.690799
0.0188854 -0.51471901 0.63013399
0.0189269 -0.59383601 0.67931098
0.0190049 -0.57341897 0.69274902
0.020070475 -0.58020455 0.70267045
0.0191951 -0.60866404 0.80711001
0.024942171 -0.6955834 0.69058394
0.019711999 -0.468795 0.54846197
0.021075113 -0.71548951 0.69757521
0.019618664 -0.59424716 0.63365859
0.020587418 -0.66120154 0.75222921
0.020660602 -0.53680199 0.72070998
0.020823902 0.96761101 0.70971799
0.018965447 -0.62522864 0.62213975
0.025900016 -0.62664622 0.63959271
0.02515386 -0.68965226 0.681144
0.0224967 -0.63273603 0.77039999
0.024795711 -0.63650435 0.65044624
0.02316344 -0.71674889 0.70426196
0.024521114 -0.63514024 0.62897038
0.022928299 0.987535 0.69618499
0.023108698 -0.56308496 0.65223801
0.022789394 -0.61526889 0.78719383
0.023513502 0.94925004 0.64550799
0.023664702 -0.54783499 0.87738299
0.025481155 -0.70113862 0.69265288
0.023886599 -0.452786 0.52734298
0.026502173 -0.63358724 0.64562333
0.025533473 -0.70607597 0.69187903
0.025133437 -0.69138074 0.72301233
0.024301101 -0.51483202 0.892349
0.0245401 -0.57099801 0.855681
0.024837501 0.94085401 0.71979105
0.024971699 -0.513744 0.64452004
0.025990054 -0.71278656 0.69765764
0.025459381 -0.61345232 0.62851477
0.025476402 0.98496497 0.67840695
0.02831275 -0.61556023 0.65087318
0.0255374 -0.542027 0.66181803
0.026617132 -0.64086974 0.63385218
0.025652001 -0.59765702 0.82158995
0.029805403 -0.62119639 0.65645933
0.0262274 -0.51348299 0.65903097
0.026546901 -0.59048098 0.83364505
0.026593201 -0.52658999 0.66806799
0.026698001 -0.68172997 0.67260098
0.0267663 0.98618895 0.68783599
0.026890701 -0.47858003 0.90051299
0.027063798 -0.60970503 0.80387902
0.027214998 -0.55379999 0.69900399
0.027332 -0.66641998 0.67317599
0.032315165 -0.60692048 0.66608596
0.027614901 0.91983497 0.63321298
0.028938513 -0.68073601 0.72451353
0.027722199 -0.439244 0.50307798
0.028983396 -0.70883733 0.70426726
0.031506743 -0.57350278 0.69193602
0.0280392 -0.64697301 0.681279
0.028139099 -0.59263599 0.68059403
0.028250836 -0.65741241 0.74639726
0.0284025 0.52192199 0.64799005
0.028786857 -0.70505643 0.69750243
0.0286073 0.90413004 0.725214
0.028614599 -0.590029 0.69851404
0.028580684 -0.62826842 0.68638963
0.028860901 0.54977101 0.72187102
0.028919401 0.96668899 0.65976
0.030356055 -0.59892756 0.63634121
0.029226698 0.55284399 0.64770502
0.029855454 -0.69804108 0.7128377
0.0294486 0.450811 0.72531897
0.029524099 -0.64589798 0.75380701
0.0295802 0.398049 0.73364401
0.035002042 -0.61340803 0.64555109
0.029775299 0.595155 0.72724503
0.030286398 -0.58030027 0.67092955
0.029999599 0.58694196 0.64536101
0.0300411 0.53056902 0.611687
0.030092299 -0.44892201 0.89474404
0.030357318 -0.60982406 0.64942479
0.0304654 -0.38369399 0.86957002
0.032262187 -0.69670504 0.70397216
0.030596999 0.50675797 0.72135699
0.0306019 -0.42607898 0.480955
0.030638499 0.52523601 0.55862302
0.0307726 -0.62756598 0.76610899
0.031037064 -0.58287996 0.6672824
0.032510113 -0.61276865 0.78539878
0.0310652 0.50349998 0.52239001
0.031191999 -0.57253098 0.70790601
0.031231001 0.883569 0.62198901
0.031396799 -0.56259 0.67850703
0.0314993 -0.64574403 0.67812401
0.031579699 0.64131898 0.63347697
0.031633399 0.86641198 0.728104
0.031657699 0.64537102 0.73392403
0.031738199 -0.416242 0.88288802
0.031826001 0.47688499 0.48713902
0.034814823 -0.56751114 0.65472418
0.031969901 -0.665878 0.67170095
0.032065 -0.61515701 0.65250605
0.032065 -0.55476302 0.69663101
0.034409545 -0.62491041 0.63870007
0.032477099 0.43629101 0.46529302
0.032562397 -0.348647 0.849334
0.033037901 -0.31511399 0.82472003
0.033125702 0.33433899 0.73708397
0.033220798 0.69278097 0.62339097
0.033274401 -0.410961 0.466061
0.033315901 0.84161597 0.61470598
0.034859851 -0.61257154 0.80161369
0.033393901 -0.59133202 0.68064004
0.033411 -0.62636399 0.64090896
0.033571899 -0.561239 0.67690498
0.033684101 0.74328303 0.61487204
0.033720601 0.79426497 0.612409
0.033888899 -0.59777099 0.66191101
0.033966899 0.96788102 0.701406
0.035167281 -0.68919158 0.69191343
0.037253767 -0.67825401 0.68162215
0.0341205 -0.65952104 0.73123705
0.034162 0.39265999 0.453852
0.034166902 -0.52277303 0.71543401
0.034155406 -0.61852473 0.76438797
0.036352236 -0.68762827 0.71164483
0.034318 0.82715899 0.73299497
0.034337498 -0.27978399 0.80375701
0.03423515 -0.61977702 0.68517226
0.034788698 -0.525056 0.71866
0.0348057 -0.58339697 0.67668504
0.034920298 0.22388901 0.729186
0.034930099 0.070616104 0.71963
0.035034899 0.122969 0.72597295
0.035054401 0.277551 0.73311895
0.035061702 -0.53981799 0.71727699
0.035354398 -0.56783503 0.68690002
0.0354397 -0.54507303 0.686961
0.035668898 0.68706101 0.73889601
0.035934702 -0.24948201 0.789029
0.03788913 -0.63050884 0.67515284
0.04052246 -0.57090414 0.65949368
0.039328307 -0.67367685 0.71333444
0.039292049 -0.58843309 0.66441882
0.036263898 -0.55187303 0.69201303
0.0363736 0.16633499 0.72844005
0.0366638 0.78126097 0.73993498
0.0368637 -0.39895901 0.45091099
0.037044201 -0.23473302 0.36763
0.037458703 0.732135 0.74224401
0.037478197 -0.62152404 0.75203699
0.037541598 -0.200415 0.76448995
0.037906606 -0.60866266 0.64534485
0.040337108 -0.6839174 0.70041931
0.037880499 0.025200902 0.72294402
0.037963498 -0.0169542 0.73080802
0.037985399 -0.17644501 0.35830298
0.040621039 -0.53113544 0.6690582
0.042123314 -0.57594347 0.66127318
0.038090199 -0.058277704 0.36746898
0.038192701 -0.51496798 0.89036006
0.042242181 -0.65994149 0.67851013
0.038346302 0.94708902 0.65061402
0.038390201 -0.54522401 0.87233704
0.038755309 -0.60688901 0.78153056
0.0386535 0.96679902 0.67105502
0.039041199 -0.38096601 0.43742698
0.039535627 -0.56834674 0.85447633
0.039124101 -0.158298 0.75428003
0.0392875 -0.60794902 0.76987296
0.038907975 -0.57222682 0.78545225
0.03943418 -0.59749222 0.77192003
0.039978102 -0.54367781 0.68487984
0.039623998 -0.48111802 0.896999
0.042186227 -0.5875203 0.66404986
0.0398288 -0.35364398 0.42262799
0.039831299 -0.679663 0.68960404
0.0400385 -0.114537 0.74826401
0.040126301 0.33327597 0.43873599
0.0402385 0.96750605 0.68698698
0.046702396 -0.58570445 0.68988848
0.046482563 -0.60381395 0.79773366
0.040679798 -0.59750098 0.82117999
0.042629763 -0.65341449 0.72113889
0.040799297 -0.47792599 0.57697701
0.040860299 -0.58788604 0.83529603
0.047753152 -0.56566083 0.6775381
0.040957797 -0.60531598 0.75970495
0.040982198 -0.51573396 0.61542302
0.041143097 -0.63821501 0.73296303
0.04296938 -0.59027898 0.77921569
0.041367501 -0.64314002 0.67429298
0.041372299 -0.084451601 0.744699
0.041486904 -0.46252102 0.55503297
0.041501597 -0.604182 0.68241799
0.041796599 -0.49766299 0.59502798
0.04238588 -0.60060698 0.78173339
0.041845396 -0.0569074 0.74027395
0.043881677 -0.56934619 0.78131539
0.041952699 -0.50202799 0.63665402
0.042035598 -0.51327097 0.66549796
0.042167302 0.290535 0.42490602
0.042535402 -0.30043802 0.39213797
0.04367736 -0.59083343 0.78451705
0.043266453 -0.5728519 0.79345876
0.0428086 0.94204402 0.70706004
0.04906176 -0.60789847 0.73847055
0.043064598 0.219568 0.39958
0.0430719 -0.326646 0.40688097
0.043230399 0.17563601 0.38504502
0.0433353 0.26058701 0.414911
0.043352298 -0.124497 0.36505798
0.043391299 -0.62278003 0.67655295
0.045277338 -0.5166195 0.88876158
0.043756828 -0.56761384 0.69918853
0.0437815 0.13369501 0.37391898
0.043959498 -0.50609499 0.65065497
0.0443496 0.43613997 0.4648
0.044417903 -0.60349202 0.81502801
0.044629999 -0.48657298 0.89688498
0.048359755 -0.59836072 0.74736786
0.044778802 -0.53296602 0.69816202
0.045308158 -0.5346958 0.70061958
0.045161303 -0.65965247 0.68628502
0.044703521 -0.66861129 0.69944304
0.045159202 -0.59296799 0.75941002
0.047261786 -0.54519039 0.86989355
0.045644399 -0.60362798 0.68142802
0.045722399 -0.44748297 0.52971804
0.048380949 -0.59877944 0.79265016
0.048528567 -0.59177172 0.76606292
0.046068702 0.54858899 0.70715106
0.046985287 -0.58944517 0.77562982
0.046434499 -0.63439101 0.72306603
0.046722203 0.392378 0.45530498
0.046924602 0.91748703 0.64056998
0.047249287 -0.59120345 0.78890967
0.047978181 -0.60572857 0.80548632
0.0472611 0.50531697 0.70574796
0.047473203 -0.49111599 0.89730906
0.047741398 -0.55760598 0.67124295
0.0479853 -0.62126303 0.67840403
0.048555899 0.45129901 0.716492
0.0486315 0.083651692 0.36727402
0.049501851 -0.61271715 0.73168188
0.048955798 -0.5334 0.67351305
0.051505189 -0.57107627 0.79489851
0.052398205 -0.51739097 0.89283943
0.0494776 -0.435835 0.50267899
0.049587302 0.48077202 0.48328301
0.049850602 0.94551396 0.66574895
0.049913999 -0.56389898 0.67577302
0.0499238 0.59607202 0.713166
0.049939696 -0.60619503 0.6830647
0.050624691 -0.62662524 0.68713331
0.050739039 -0.63821369 0.70662302
0.050223697 -0.57585502 0.83740503
0.055698622 -0.59353316 0.79032272
0.050694298 -0.54500902 0.87175697
0.050889403 -0.492484 0.89866698
0.051598638 -0.58706033 0.77532434
0.0510455 0.90684301 0.71032304
0.053185061 -0.56759536 0.78407484
0.051364899 0.55402201 0.65560305
0.051469699 0.94379503 0.68743896
0.051620897 0.038136598 0.368157
0.048599485 -0.59092569 0.77112573
0.052179299 -0.45657298 0.89166701
0.052289099 -0.422979 0.480131
0.052486602 0.58909303 0.65405196
0.052554797 0.52261502 0.65509105
0.052696299 0.00375027 0.37086102
0.0527182 0.332854 0.442918
0.052815698 -0.32099098 0.40758097
0.052854799 -0.55394602 0.852911
0.052935198 -0.40709302 0.4664
0.053242501 -0.584858 0.75432402
0.053566799 -0.538243 0.69413698
0.054396272 -0.61306781 0.69804931
0.053805698 -0.58518702 0.82391298
0.05422369 -0.54690325 0.68495023
0.053847197 -0.56514502 0.69283998
0.0539984 -0.60918802 0.71713305
0.054086197 -0.58813703 0.81773204
0.054098301 0.88245004 0.63318598
0.053538598 -0.5874427 0.69081545
0.054351903 0.440568 0.44749999
0.054359298 0.529625 0.60359401
0.054712802 -0.49935299 0.90186203
0.055810541 -0.54993826 0.85897958
0.055217601 0.64865798 0.71917397
0.0554712 -0.51395398 0.67255402
0.055517502 -0.473535 0.88673401
0.055541903 -0.54281199 0.88082802
0.057041287 -0.5935607 0.80841863
0.055810098 0.51014501 0.50843799
0.055815 0.64374 0.64404702
0.0559345 0.52755296 0.54891104
0.055951498 0.39818802 0.442911
0.056229502 -0.598903 0.714158
0.056456298 -0.56105399 0.83983397
0.057944514 -0.58412063 0.77835047
0.056575797 -0.53939098 0.67639297
0.0568952 -0.34535998 0.42529801
0.056914702 0.55070502 0.690099
0.056936599 0.52169603 0.65314001
0.058296733 -0.53750348 0.87730294
0.057031699 0.87061095 0.71314698
0.057287797 -0.39360401 0.453545
0.057312198 -0.54229999 0.87825102
0.058458816 -0.56605542 0.79118693
0.057424303 -0.58679795 0.74107099
0.057468198 -0.59621602 0.79631501
0.0580681 -0.55052203 0.69033796
0.0581607 -0.176184 0.368718
0.060104877 -0.58739126 0.77354866
0.0583607 -0.47659501 0.88657498
0.058560599 0.842062 0.62822402
0.058631301 -0.56567001 0.69524598
0.0586874 -0.37315601 0.44075298
0.058719102 -0.59679401 0.80287004
0.058731299 -0.22357701 0.370983
0.058862999 -0.076378003 0.37347698
0.0588727 0.52894503 0.60165602
0.062633626 -0.58217746 0.72324562
0.0592409 0.40328702 0.72428495
0.059389699 -0.49676999 0.65761399
0.059548203 0.69479799 0.63582999
0.063799016 -0.58233511 0.76796675
0.0599261 -0.48237202 0.89851403
0.060148001 0.79593003 0.62711501
0.0603089 -0.48862597 0.64609301
0.060350399 0.91436601 0.66018897
0.060406499 -0.50747699 0.90803802
0.060462598 -0.54404402 0.68138397
0.06313163 -0.58942533 0.78922915
0.060635701 0.74495596 0.62965101
0.060750298 0.55210298 0.67079598
0.060855098 -0.52699697 0.67830199
0.0611136 0.45059699 0.70776701
0.0611526 0.33449 0.446778
0.061184302 -0.57548696 0.70705801
0.061049353 -0.57457519 0.82349533
0.061367203 -0.44718799 0.56408501
0.061425701 0.501284 0.678743
0.061623201 0.83172798 0.71725798
0.061723199 0.52750599 0.549752
0.0617842 -0.56730801 0.69964498
0.06369064 -0.54963881 0.69064766
0.062064599 -0.42027 0.87249601
0.062089 0.91059899 0.68684798
0.062344998 -0.46021599 0.58704495
0.064185962 -0.53810692 0.85414076
0.062513299 -0.56083399 0.708794
0.062630303 -0.57617199 0.755521
0.063923635 -0.57489783 0.81130373
0.062896103 0.59557402 0.69191301
0.062935099 -0.39380902 0.85292506
0.062971704 -0.43634701 0.53663099
0.063100904 0.69256401 0.72377604
0.063335001 -0.50474602 0.67415398
0.0634716 -0.13218099 0.37774
0.063476399 0.224691 0.72268999
0.063544698 0.45648301 0.413555
0.064868361 -0.58196908 0.78714591
0.063703202 0.342473 0.73407501
0.063747101 0.27555901 0.72747201
0.063891001 -0.53894502 0.68470299
0.063959196 0.592902 0.669994
0.064156696 -0.546345 0.89092004
0.064344503 -0.527762 0.90191805
0.0643567 -0.544756 0.84376699
0.064373799 -0.020724 0.37625
0.064468898 -0.47805598 0.605138
0.065085799 0.78760302 0.72265601
0.065134503 -0.42886102 0.50800902
0.0652394 -0.362205 0.83368403
0.0654881 0.0237622 0.714378
0.065670997 -0.58744997 0.79368895
0.065941602 -0.495895 0.62404704
0.065958701 0.42337501 0.40985402
0.065995306 -0.49120799 0.90738899
0.066151299 0.35909301 0.43810698
0.066302501 -0.32649899 0.81406701
0.066380598 0.16547701 0.72321999
0.066392802 0.73881602 0.72579002
0.068250641 -0.58073556 0.78559905
0.066773199 -0.51437598 0.68508798
0.0668853 -0.54293901 0.70190102
0.066958502 -0.58329499 0.80195999
0.068189666 -0.53061652 0.86557275
0.067204699 0.50210798 0.67492503
0.069220133 -0.5423063 0.89062691
0.067282803 -0.54571402 0.88954496
0.067580298 0.066253804 0.71244204
0.067792401 -0.52675802 0.693573
0.068007 0.87929899 0.656793
0.068160601 -0.284159 0.39478901
0.068189904 -0.165723 0.753636
0.068316698 -0.57360399 0.74331903
0.068472698 -0.17546 0.37961701
0.068560503 -0.29083499 0.79687601
0.068645805 -0.41924399 0.48530999
0.068711601 -0.0163763 0.72289801
0.069035999 0.12020601 0.720954
0.069177397 -0.55445999 0.825849
0.069338299 0.64773399 0.66580701
0.069387101 -0.120333 0.745897
0.069426097 0.64983803 0.69417799
0.069657795 -0.52194196 0.864447
0.069767497 -0.53224397 0.85484201
0.070057705 0.87530798 0.686961
0.070060104 -0.40513501 0.47194001
0.070138104 -0.33590698 0.43122101
0.070277102 0.51966703 0.50346398
0.071815155 -0.55919302 0.80946386
0.070347801 -0.20804399 0.76225096
0.070686795 -0.56771803 0.73145401
0.070686795 -0.097899303 0.386123
0.070864804 -0.217466 0.37384102
0.070898898 -0.056334399 0.73458505
0.073082231 -0.53348291 0.83874023
0.071164697 -0.253867 0.78310204
0.071272001 0.399878 0.40430099
0.0713256 -0.36503601 0.44684601
0.071474403 -0.310523 0.413223
0.071671903 -0.56051499 0.71839404
0.071783997 -0.39015901 0.46008399
0.0718816 0.28250602 0.448578
0.071925499 -0.56860101 0.758959
0.0721303 0.17848101 0.40824601
0.072205901 0.444013 0.374614
0.072213203 -0.087245904 0.74093902
0.072315603 0.50214696 0.671323
0.072330296 0.47602001 0.375945
0.072595999 0.83955598 0.65515405
0.072446182 -0.57565612 0.78567415
0.073052004 -0.14018899 0.39269501
0.073547401 -0.54374391 0.82468396
0.073671401 0.529199 0.64636099
0.0737518 0.21764201 0.42429101
0.073759198 0.140028 0.39385501
0.074173696 -0.52940798 0.85230398
0.075899936 -0.53332895 0.88378549
0.0745029 -0.50183302 0.67692202
0.074834496 -0.55510896 0.90641701
0.074883297 0.428444 0.37129501
0.074956395 -0.490969 0.66402704
0.0749906 -0.538369 0.91377604
0.0750174 -0.46126997 0.85501504
0.075039297 0.83617401 0.68894994
0.0750954 0.79446197 0.65683198
0.075222202 0.697061 0.66305
0.0755319 0.25475401 0.44219398
0.076151274 -0.54537243 0.80774653
0.075644001 -0.0480901 0.38698101
0.075846404 -0.566908 0.79908597
0.076382898 -0.42899701 0.57548201
0.0764926 -0.52654803 0.91890097
0.076592594 -0.46486402 0.85693705
0.076643802 0.74486506 0.65996498
0.076685198 -0.57336497 0.77371597
0.076702297 -0.55535001 0.90442902
0.076919295 -0.481516 0.65501702
0.076941296 0.69608998 0.69632101
0.076950997 0.49673599 0.41570801
0.077019304 0.51194 0.46641499
0.077207096 0.099864699 0.38448897
0.078763589 -0.54732901 0.79684556
0.077589899 -0.438768 0.60017502
0.0775996 -0.41925597 0.54983503
0.077704504 -0.559852 0.75034201
0.078640625 -0.55136234 0.90357363
0.077780098 -0.14611399 0.39053601
0.077933699 0.792041 0.693066
0.077953197 -0.53679699 0.70649004
0.078033701 -0.45163301 0.85357201
0.078487203 -0.52432901 0.88350505
0.078536004 -0.42983398 0.84415197
0.078887098 -0.275244 0.39659801
0.078928597 0.49883097 0.37606201
0.079160199 0.74301696 0.69618303
0.079674698 -0.523193 0.69783801
0.079684503 -0.11798 0.40207499
0.080001399 -0.41339901 0.523956
0.080633 -0.51060301 0.68810898
0.080674499 -0.214843 0.37482101
0.080713503 -0.56162399 0.78182197
0.080942698 -0.52792799 0.82719803
0.081137799 0.47197399 0.32633799
0.081184104 -0.173609 0.381897
0.081191398 -0.408344 0.82743895
0.081037827 -0.31105432 0.41543183
0.081596203 -0.145621 0.38893002
0.081652299 0.452779 0.69866997
0.081732705 -0.125743 0.40199003
0.081991196 -0.45323002 0.61823201
0.082193606 0.50606298 0.327618
0.0831763 -0.563178 0.76695198
0.083217695 -0.51575804 0.91931099
0.083273798 -0.51640898 0.859402
0.083880998 0.278056 0.46109903
0.083941899 -0.073315404 0.399912
0.083998002 0.0604528 0.38272399
0.085502833 -0.54841864 0.90136057
0.084327199 -0.173456 0.379756
0.093513489 -0.34256801 0.43898445
0.084974267 -0.55446291 0.92867202
0.085083105 0.408903 0.71697199
0.085156202 0.54062998 0.58712798
0.085302599 -0.47030601 0.87562203
0.085322104 -0.383275 0.81160402
0.085490301 -0.12609901 0.40031397
0.085865803 -0.40776902 0.50154501
0.085897505 0.34422198 0.72285402
0.086333998 -0.52994704 0.812675
0.086407095 0.22167701 0.70882601
0.086646102 0.031587001 0.38523301
0.086968005 -0.52091497 0.85864305
0.086984999 -0.55419701 0.77894402
0.087116696 -0.54480702 0.76000804
0.087236203 -0.26800001 0.39503503
0.087571792 -0.56307226 0.92479622
0.087609299 -0.47129199 0.63583499
0.094570324 -0.549402 0.91321856
0.089212239 -0.55937141 0.92341638
0.089798152 -0.51621324 0.84329069
0.088813804 0.51031798 0.29042101
0.089101598 -0.54055899 0.73802102
0.0892113 -0.099155098 0.41288701
0.089335702 0.261601 0.70834804
0.089581899 -0.46356702 0.66989702
0.089833096 -0.40742502 0.59286499
0.089859895 -0.17359899 0.35440898
0.089862406 0.54402399 0.53527498
0.089928195 -0.106704 0.408759
0.090140305 -0.54496497 0.93171501
0.090367101 -0.399634 0.488446
0.090445101 -0.34381402 0.796179
0.090481699 0.0051913499 0.38992402
0.090498798 -0.146879 0.36861801
0.090596303 -0.39888301 0.57074904
0.092621878 -0.51374686 0.83521128
0.090705998 -0.471587 0.67516601
0.091049902 -0.52164197 0.857427
0.090089649 -0.5318048 0.79890901
0.091098607 -0.41723001 0.61402303
0.0913449 -0.36478999 0.453374
0.091742404 0.52690399 0.29333201
0.09332446 -0.55755949 0.9211241
0.091954499 0.24719 0.47075501
0.092456646 0.56191373 0.027457554
0.092207372 0.55751973 0.033645045
0.092369005 -0.197547 0.36437699
0.092381202 -0.481628 0.89433199
0.093445063 0.56304228 0.01482687
0.092834301 0.54994398 0.027927469
0.092988394 0.557652 0.016878501
0.093146898 -0.107494 0.406703
0.093180999 0.33086398 0.43237701
0.093188293 0.31446302 0.45076999
0.092904896 0.5881685 0.039559986
0.093415096 0.36248502 0.39743
0.093515098 -0.30520201 0.77697897
0.093612604 -0.534051 0.77678102
0.0936784 0.27905101 0.708197
0.093805201 0.39476502 0.361137
0.093829602 -0.52011603 0.879004
0.0939954 0.18206801 0.44972402
0.094056398 -0.42989701 0.631836
0.094119795 0.43692198 0.321179
0.094146602 -0.39369899 0.54888898
0.094278298 0.21824899 0.46823397
0.094485596 0.52441901 0.416581
0.094436124 0.57069898 0.048911158
0.094775699 -0.38783699 0.47612703
0.094826899 0.54448301 0.48801398
0.094902493 0.54739398 0.038446099
0.0950123 0.57119298 0.0216968
0.095122002 -0.42939702 0.79771799
0.095202506 0.53640401 0.45602199
0.094921693 0.60567725 0.041119054
0.096492358 0.60270637 0.025918143
0.095326796 0.56547499 0.061315898
0.0954317 -0.557455 0.93473101
0.09867499 -0.56234288 0.93450975
0.095811993 0.55746496 0.054873601
0.095882796 -0.023659799 0.39983201
0.096175402 0.27937001 0.46760899
0.096221708 0.148981 0.43489602
0.096251003 -0.47175202 0.83709502
0.096399695 0.16586 0.70688498
0.096429005 -0.44177699 0.80581999
0.096485101 -0.52924502 0.72595596
0.096492395 0.60732001 0.058972601
0.0965802 0.52047199 0.373602
0.0967362 -0.53704101 0.90042996
0.096872799 -0.47438598 0.84100401
0.096880101 -0.40464002 0.78405797
0.097004995 -0.55919915 0.92987388
0.097111702 0.53662103 0.266554
0.097184896 0.48598 0.28588301
0.097201899 0.022323599 0.70254207
0.10079398 -0.44186234 0.69044256
0.097375095 -0.193316 0.34300998
0.097636007 -0.51044703 0.91511703
0.098179705 -0.52125198 0.75017405
0.098230898 -0.54192001 0.93140799
0.09896788 0.54530615 0.024935136
0.098369904 -0.058119301 0.71927398
0.098409005 -0.45344502 0.81511098
0.098435804 -0.468541 0.83038199
0.098448001 -0.457046 0.68751901
0.099547297 -0.55527902 0.91932487
0.098491803 -0.12936001 0.37858102
0.098604001 0.122371 0.42197499
0.098845392 -0.429151 0.74971998
0.098901503 0.60738099 0.071030505
0.099072196 0.52692598 0.32775298
0.099103898 0.54308999 0.26637802
0.099160001 -0.52604097 0.87890196
0.099455006 0.55375099 0.0146961
0.099508695 -0.44878301 0.649629
0.0997793 -0.052020799 0.41351101
0.100009 -0.55323601 0.93565804
0.10001799 0.560691 0.010706901
0.10078371 0.60152155 0.016972996
0.10016 -0.26493499 0.76067597
0.100265 0.57570899 0.0155057
0.100272 -0.0184587 0.70543098
0.1001992 0.61687809 0.038866729
0.100362 -0.390746 0.52802598
0.100467 0.065200403 0.70102
0.100808 0.51817501 0.26217899
0.100894 0.54412401 0.037524398
0.100972 -0.41413501 0.74218804
0.1010004 -0.26986465 0.021953469
0.10111455 -0.28585738 0.026939794
0.101208 -0.17479201 0.74627501
0.10121801 0.53282702 0.62587398
0.10122 0.61368698 0.0253007
0.101237 0.58332402 0.070303798
0.101364 -0.5424 0.898597
0.10164076 -0.55572909 0.92505294
0.10201839 0.62063903 0.063428335
0.101542 0.116329 0.70488298
0.10171355 -0.26645187 0.034586288
0.101698 -0.12748399 0.73971802
0.10399869 -0.51516819 0.85370553
0.10266121 -0.29656032 0.01252841
0.10199299 -0.0910962 0.73334396
0.101996 0.54101801 0.29310301
0.102023 0.60810798 0.086792298
0.102235 -0.448549 0.69629502
0.102254 -0.51409799 0.84141898
0.102881 -0.52720201 0.87717301
0.102942 0.24666901 0.48649502
0.102983 0.55279499 0.055434499
0.103018 -0.21778299 0.75231695
0.103118 -0.082047299 0.42338699
0.103183 -0.30150601 0.020762801
0.103193 0.55307299 0.249668
0.10329799 0.50313497 0.66193998
0.103317 0.55924499 0.062510699
0.103347 -0.149013 0.33405301
0.103364 0.54185903 0.57980996
0.1033317 -0.26566488 0.012427706
0.103483 0.280155 0.47121298
0.103503 -0.17466499 0.32500702
0.10527039 -0.50739801 0.83263743
0.10315091 -0.29267293 0.036272243
0.10362001 -0.245471 0.025269
0.10387166 -0.24521066 0.038870651
0.104029 -0.379976 0.61560798
0.104193 -0.51793098 0.71389002
0.10458946 -0.2873733 0.0071118306
0.104222 -0.48567799 0.68294197
0.1043 -0.36476001 0.76362097
0.10443401 0.57359499 0.0133526
0.10434578 -0.56034702 0.92916334
0.104512 0.61020499 0.016403001
0.104551 -0.088230997 0.42253101
0.104578 -0.389337 0.634408
0.10458101 -0.43059701 0.708601
0.10485601 -0.30401 0.034432501
0.10491201 0.62275296 0.087596998
0.10541423 0.54387617 0.023203
0.10517801 0.607674 0.105156
0.105285 -0.373914 0.59584498
0.105366 -0.24578801 0.0145791
0.10538 -0.43816102 0.71142304
0.10543899 0.59064901 0.082886003
0.10552201 -0.386608 0.51490504
0.105592 0.57569599 0.071281597
0.1059 -0.092022799 0.419063
0.10631663 -0.55854434 0.93271369
0.105978 -0.54467797 0.89815301
0.106073 -0.30201501 0.0094096502
0.10613599 -0.511774 0.81058002
0.1061038 -0.30043116 0.042966209
0.106234 0.56376302 0.232418
0.10637 -0.403494 0.65224296
0.10662189 0.5568738 0.010491111
0.106524 0.54117799 0.240897
0.106778 -0.306692 0.018385399
0.10752848 0.56215411 0.26615453
0.106931 -0.50842303 0.70334196
0.107124 0.54815 0.53036702
0.10816507 -0.11081031 0.3769604
0.107243 -0.31436801 0.424301
0.10741901 0.603697 0.13926899
0.107511 0.218512 0.48459801
0.10751601 0.62287998 0.108879
0.107626 -0.343539 0.44515201
0.1098043 -0.29445279 0.0026233294
0.10787699 -0.49676299 0.69319296
0.107894 0.543639 0.035946801
0.108009 -0.42742199 0.66743106
0.108124 -0.37056598 0.577869
0.10825 -0.54443902 0.92518204
0.108353 0.55647498 0.22655399
0.108421 -0.189917 0.318313
0.108445 -0.26211798 0.063449502
0.108487 -0.48218602 0.85768998
0.10978146 0.54769987 0.021053774
0.10862099 0.59634703 0.17930999
0.10881601 0.56972003 0.254774
0.108884 -0.36360699 0.46243802
0.10994034 -0.24767159 0.0048942487
0.11069599 0.56762236 0.014587744
0.108967 -0.30892798 0.0326964
0.109067 -0.239963 0.0671729
0.11034703 0.55585593 0.014543005
0.109165 0.455798 0.69147402
0.109389 -0.51520002 0.84931701
0.109467 0.57988602 0.237795
0.109474 -0.51046395 0.76930803
0.10952599 -0.51053298 0.790968
0.10955 -0.381861 0.50153702
0.109611 0.57141703 0.21292101
0.109689 0.187471 0.47525397
0.10951699 -0.23097482 0.029356344
0.10999601 0.58923197 0.21988001
0.11201402 -0.54266208 0.89558774
0.110106 0.081876606 0.41264999
0.110203 -0.18216801 0.275424
0.11023501 -0.419346 0.67512494
0.11034001 0.59215099 0.098889202
0.11050101 -0.49777499 0.83227205
0.110681 -0.305592 0.043930102
0.11057176 0.620996 0.026734192
0.110801 0.54781604 0.49012101
0.110816 0.619546 0.145331
0.11083 -0.156148 0.28311002
0.110891 -0.553756 0.91932297
0.111025 0.569291 0.069706403
0.11112001 -0.37945703 0.490089
0.11249874 0.55332464 0.060068507
0.111152 -0.27596799 0.0028796101
0.111235 0.53268796 0.0118188
0.11125901 -0.44543701 0.76316804
0.111267 -0.233355 0.015181299
0.111454 -0.32586497 0.74176806
0.11275437 -0.52510464 0.87563652
0.111471 -0.22643 0.050494298
0.11305247 0.54735273 0.03468857
0.11249635 0.59324849 0.009216927
0.111535 -0.29262301 0.053300902
0.111628 0.53453398 0.41525701
0.111835 0.158347 0.468173
0.11215642 -0.4959121 0.82745773
0.111847 -0.218868 0.35607499
0.111876 -0.30441201 0.0090658301
0.111932 -0.40367499 0.69258797
0.111969 -0.23135 0.36833999
0.111988 -0.133829 0.33307999
0.11212499 0.24820499 0.488419
0.11323342 0.62915444 0.062850639
0.112142 0.58187997 0.080574401
0.112191 -0.273406 0.39715698
0.112301 -0.38173902 0.72586304
0.112315 -0.270787 0.065792799
0.112318 -0.51763099 0.90515602
0.1124 0.52859902 0.0182586
0.11251975 0.54088151 0.0069264723
0.11250301 0.61627102 0.0161616
0.112761 -0.22702199 0.086146094
0.11276399 0.53705299 0.37339699
0.112905 -0.30833301 0.016914999
0.112998 0.135746 0.45346698
0.113071 0.347996 0.70869398
0.113205 -0.36872798 0.56218797
0.113237 0.58303797 0.16939801
0.11324701 -0.222341 0.066819303
0.113288 0.588808 0.131715
0.113532 -0.37668899 0.676678
0.113588 0.41652697 0.70552695
0.11378299 0.54450899 0.457468
0.11865347 -0.27826014 0.0013162143
0.11401 -0.245552 0.085258506
0.11401 0.36431199 0.35666001
0.114129 -0.35827401 0.65888494
0.114271 -0.101242 0.378849
0.11428001 0.057343896 0.41219899
0.11431 -0.49216899 0.88053495
0.11441 0.336992 0.392021
0.11571826 0.55072469 0.044980355
0.114544 0.61350101 0.184048
0.114719 -0.214048 0.084790297
0.12062022 0.58442515 0.0084614838
0.114824 -0.34884998 0.64112604
0.11486301 -0.34933499 0.70770597
0.11607012 0.60536909 0.010129264
0.114992 -0.235576 0.0061129304
0.11512201 -0.310072 0.030372601
0.115171 0.63314497 0.083605297
0.115185 0.53004199 0.033720501
0.115385 0.582344 0.25521001
0.115429 -0.51277399 0.73824996
0.11546601 -0.19517401 0.23222299
0.1157 -0.0360444 0.432221
0.11629651 0.56715155 0.062142935
0.115978 -0.170488 0.234098
0.116061 0.59396702 0.240504
0.11713797 0.5556975 0.053841621
0.116168 -0.101969 0.37162399
0.11638699 0.58406299 0.094897501
0.116431 0.019363299 0.69120795
0.116556 0.40801299 0.313961
0.11664601 0.137577 0.45646301
0.11666799 -0.21629801 0.337136
0.116707 -0.19914199 0.27076
0.116785 -0.281533 0.72194397
0.116975 -0.30756 0.042203698
0.11749783 -0.25718173 -0.00063232303
0.11706801 0.313593 0.42607102
0.117133 0.45456201 0.27971399
0.11718199 0.029241299 0.41439399
0.11726499 0.60573798 0.22403499
0.117402 -0.32397598 0.68865502
0.11756 -0.34453401 0.62190402
0.117587 0.54961801 0.32678002
0.117631 0.57735699 0.073632203
0.117738 -0.21130699 0.10364199
0.117784 0.54388303 0.057753399
0.117843 -0.296161 0.052079201
0.11776812 -0.30138487 0.0093707982
0.117953 0.63552701 0.106202
0.118058 -0.545416 0.89610898
0.118267 -0.23035601 0.10767999
0.118355 -0.181951 0.73549402
0.12205692 0.57435244 0.010895887
0.118406 0.188227 0.47991797
0.118416 0.55028099 0.064049304
0.11842301 0.217691 0.48850602
0.118462 -0.51129103 0.84744102
0.118543 0.30100301 0.44470298
0.11854801 -0.00088026002 0.42208698
0.11857 -0.36690798 0.54885203
0.11880558 -0.19946246 0.1345152
0.118857 -0.27779201 0.064980797
0.118872 0.16098301 0.47005501
0.12016092 -0.24144968 6.13511e-05
0.118955 0.49654597 0.254888
0.11927083 -0.22021551 0.13632064
0.119091 -0.18542801 0.17979001
0.119179 -0.52670401 0.87267405
0.119352 -0.138289 0.73193198
0.119391 -0.14279801 0.28128901
0.119491 -0.20570801 0.17808399
0.119674 -0.0712476 0.43805599
0.119902 -0.29494917 0.0058842283
0.119833 -0.20712 0.23025601
0.11970642 -0.30510205 0.013386489
0.120211 -0.072415598 0.70655298
0.120518 0.56470197 0.068616398
0.120547 -0.47395402 0.68993497
0.120711 -0.227373 0.73133695
0.120762 -0.34257302 0.60680997
0.12228663 -0.30761385 0.027155101
0.121157 -0.54269999 0.89690399
0.121162 -0.11964 0.330405
0.121462 -0.079928301 0.433267
0.121562 0.52634102 0.231143
0.12162501 0.16470699 0.68029404
0.121649 0.55797404 0.0067908196
0.12205376 -0.2576583 0.084544934
0.121727 -0.103951 0.722444
0.121796 0.58136296 0.090035401
0.121937 -0.523485 0.87196195
0.12213001 0.54013997 0.00335267
0.122183 0.576796 0.077219099
0.122205 0.54017401 0.215133
0.122325 -0.31257099 0.66944098
0.1237331 -0.30611607 0.037195187
0.122603 0.55115598 0.200885
0.122661 -0.45899701 0.774014
0.12270501 -0.30288601 -0.0018265001
0.122739 0.56454301 0.29410699
0.12280501 -0.31280801 0.00292107
0.12353192 -0.29508057 0.047868758
0.12282 0.220002 0.68186206
0.122854 0.52945703 0.0084903799
0.1229 0.57385099 0.16179301
0.12691806 -0.263733 -0.0028493723
0.123071 0.63471502 0.14581899
0.123212 -0.50138098 0.80592
0.123244 0.57888299 0.12609001
0.123276 -0.364775 0.53324103
0.123315 -0.29098201 -0.00183625
0.12255961 -0.22419199 0.021301629
0.12360501 -0.45311099 0.723629
0.123717 -0.318811 0.011579799
0.12386599 -0.089713603 0.37993199
0.123976 0.094585508 0.436461
0.124141 -0.086195 0.42589802
0.124163 -0.156321 0.23146699
0.12420201 0.280092 0.47248101
0.124244 0.52483398 0.015915299
0.12426601 -0.50410497 0.75491899
0.124405 -0.215233 0.048953198
0.124563 -0.215993 0.31022498
0.12839709 -0.34051922 0.58633238
0.125248 -0.20956101 0.064593099
0.13540237 0.58707476 0.0073634451
0.125434 -0.0924007 0.36753502
0.125578 -0.217866 0.174953
0.125717 -0.32043302 0.027797598
0.125736 0.584189 0.27148899
0.13056833 -0.27451432 -0.0025403998
0.126177 0.52620703 0.0313504
0.126229 -0.036293101 0.68849403
0.126248 -0.200105 0.083644301
0.126258 -0.228376 0.0072419103
0.12688655 0.16633686 0.47992161
0.12647 -0.46376702 0.701276
0.12676799 0.564426 0.068694502
0.12684101 -0.24420099 0.104588
0.127014 -0.13097399 0.279879
0.127077 -0.283369 0.062698394
0.127119 0.146194 0.471187
0.127326 0.62691998 0.185665
0.127389 0.25783598 0.67878503
0.127497 0.54031801 0.056217197
0.12759401 -0.36014703 0.51495302
0.127606 -0.17170499 0.17831801
0.127694 0.10935701 0.67784798
0.12824255 -0.31680119 0.042398352
0.1279594 -0.22820385 0.14382154
0.12778699 -0.33528501 0.459409
0.127823 0.600429 0.25865102
0.127838 -0.308375 0.65108705
0.127955 0.189174 0.487243
0.12798199 0.51787001 0.61400104
0.12803799 0.54779899 0.062854499
0.128084 -0.27233499 0.695544
0.12809901 -0.096643493 0.35195401
0.12815501 0.072579004 0.43584701
0.128233 0.60767102 0.0095876595
0.128243 0.061320901 0.67502898
0.12831101 -0.19311899 0.102925
0.128335 -0.307338 0.43260899
0.128618 0.25075302 0.48578
0.12864299 0.190441 0.497668
0.128672 0.217527 0.490228
