# .PCD v0.7 - Point Cloud Data file format
VERSION 0.7
FIELDS x y z
SIZE 4 4 4
TYPE F F F
COUNT 1 1 1
WIDTH 1418
HEIGHT 1
VIEWPOINT 0 0 0 1 0 0 0
POINTS 1418
DATA ascii
-0.0054196008 0.80483425 0.70850319
-0.0051977001 -0.47393948 0.97767073
-0.0048197024 0.70368719 0.71704161
-0.0046612024 -0.48791698 0.73674595
-0.0045125 0.41202226 0.80498767
-0.0041442998 0.53789407 0.68257821
-0.0040672012 -0.067065515 0.45334303
-0.0040478036 -0.21458413 0.45059156
-0.0039590001 -0.36392471 0.52010101
-0.003902901 -0.55688256 0.7742576
-0.0038322024 0.85096425 0.70969272
-0.0037424974 -0.55741948 0.87017357
-0.003632199 -0.46814165 0.96574175
-0.0033395998 -0.54172605 0.76937604
-0.0031992011 -0.16728026 0.44840914
-0.002766598 -0.58855724 0.78151333
-0.0026959032 -0.57809049 0.82004571
-0.001567319 -0.53265268 0.95582646
-0.0025593042 -0.384395 0.5328573
-0.0023032986 0.87936491 0.79466534
-0.0022082031 0.53055525 0.7340495
-0.0021862015 0.55949974 0.7710591
-0.0021666996 -0.33610174 0.50469458
-0.0018176883 -0.54015046 0.93978429
-0.0018473007 -0.53057069 0.75545049
0.0070727207 -0.55471426 0.92999232
-0.00089406967 -0.5377298 0.76398122
0.0011157244 -0.60633749 0.79181004
-0.0012230985 0.40741438 0.52360529
-0.0012059994 0.53659409 0.62983096
-0.0010864995 0.65261489 0.72516954
-0.0010816976 0.51925683 0.58932757
-0.00077547878 -0.58491844 0.86911529
0.0022833683 -0.55913478 0.86253607
-0.00081340224 -0.53434849 0.95987928
-0.00078900158 -0.4650819 0.96590614
0.00010759383 -0.57264698 0.77144533
-0.00074269995 -0.50512707 0.751656
-0.00048910081 0.65740174 0.80030495
0.0019999146 -0.56186831 0.87364018
0.0037325956 -0.48427999 0.97764748
0.0002569966 -0.59194589 0.80594248
0.00036919862 0.5385707 0.68451738
0.00037649646 0.44978628 0.52826822
0.00046670064 -0.51233178 0.97210771
0.00063009933 0.89134353 0.7147252
0.00064229965 -0.57956338 0.89670426
0.0008813031 -0.55635339 0.77185255
0.0016576871 -0.57500184 0.90621608
0.0028273724 -0.61670029 0.7740292
0.001161702 -0.52945369 0.77319646
0.0014859959 -0.57617366 0.83330202
0.0017931983 -0.39790642 0.54568875
0.0018736981 -0.54543382 0.93194282
0.0019127019 -0.31170183 0.48702013
0.0020102002 0.34208044 0.52349824
0.0020322017 0.01310299 0.450867
0.0038919672 -0.58163685 0.84593457
0.0021735989 0.53147084 0.73600215
0.0022418983 0.59795058 0.73507911
0.0024393983 -0.41381633 0.55939204
0.0025491007 -0.44812852 0.97086877
0.0055968985 -0.57911283 0.85419935
0.0031074993 0.047493979 0.44822299
0.0032939166 -0.59118038 0.8755793
0.0032586977 0.95259374 0.76908511
0.0033635981 0.56287694 0.73656899
0.0037436336 -0.59291023 0.76381409
0.0035317987 -0.59365857 0.81607348
0.0036829971 0.91560179 0.79190469
0.0064011514 -0.583978 0.86826503
0.0058412813 -0.53681374 0.94884914
0.0045290999 -0.63398021 0.78430408
0.0048358589 -0.61749977 0.76314324
0.0048046 0.60482639 0.79420519
0.0048144013 -0.55507755 0.75478774
0.0048777983 0.95435053 0.74739814
0.0051410981 0.48992777 0.56412137
0.0052508973 -0.42671168 0.58191752
0.0069786236 -0.50794291 0.96893889
0.0070261098 -0.59708947 0.88408196
0.014090298 -0.52191186 0.74806529
0.0062817819 -0.58981544 0.82581496
0.0071319938 -0.61481893 0.80676377
0.0074663498 -0.55776703 0.75598884
0.0060970001 0.093010552 0.44741946
0.0061725974 0.46004781 0.79727852
0.0085169002 -0.55764747 0.77681249
0.0068801008 -0.57643116 0.76890504
0.0067432001 -0.61244613 0.75731862
0.0087945871 -0.54344308 0.74684685
0.0095200576 -0.65189958 0.7664659
0.009622369 -0.48032758 0.97592181
0.0074674003 0.5140844 0.78662884
0.007606402 -0.53590685 0.76410925
0.013465861 -0.58548599 0.85541278
0.0077051595 -0.59091789 0.87026715
0.0078038983 0.92636758 0.72217029
0.0080063008 0.40158275 0.53598911
0.0097395666 -0.65874845 0.77855778
0.011711849 -0.56098002 0.86044627
0.0086597987 0.55735391 0.78810745
0.011185069 -0.56417286 0.87257653
0.0090059973 -0.43840683 0.60893619
0.0090840012 -0.59481633 0.76037341
0.0093473978 -0.54016447 0.94723809
0.009388797 -0.52418369 0.77723074
0.0086006708 -0.52666485 0.77903634
0.011381501 -0.64665103 0.75742143
0.0095693022 -0.58429253 0.8383739
0.010289278 -0.6475091 0.79195082
0.010310598 -0.59491354 0.89397347
0.010378797 0.44532806 0.54556048
0.010768998 -0.49722981 0.72977066
0.01104407 -0.58205509 0.86387366
0.010609344 -0.57159626 0.74547911
0.010947 0.14304219 0.45415175
0.012186207 -0.5978353 0.87465721
0.011200599 -0.5075292 0.96828002
0.0113371 -0.61395991 0.75546491
0.011393201 0.26986241 0.49536514
0.012972018 -0.59152043 0.85906619
0.011498099 0.18496372 0.46535099
0.011577399 -0.11533295 0.44483978
0.011657745 -0.57940423 0.85826135
0.0116565 -0.31735563 0.48631024
0.011663899 0.22887026 0.47996259
0.011678498 -0.61228758 0.82177299
0.013207177 -0.56435394 0.73911399
0.011919901 0.95080853 0.78870314
0.013243679 -0.57040298 0.74916846
0.012193 -0.29112196 0.47161299
0.012561198 0.29979295 0.50541246
0.012692899 -0.50443172 0.74460113
0.012775799 -0.49313837 0.7157768
0.012883099 -0.048199333 0.8201735
0.0129318 -0.48870075 0.67415851
0.013226898 -0.59537208 0.76136237
0.0132415 -0.45348904 0.63422489
0.013356101 -0.075751215 0.82455045
0.013361 -0.63431585 0.75316942
0.013585299 -0.62949324 0.81184798
0.014137844 -0.67453998 0.77952236
0.013746299 -0.50680733 0.6945219
0.013770599 -0.59664094 0.83864725
0.014564516 -0.58326876 0.74074686
0.0138682 -0.57934302 0.91426867
0.013929099 -0.46893227 0.65614194
0.014900699 -0.65278834 0.79946262
0.014048599 -0.58893329 0.90013587
0.014013736 -0.58104843 0.77076584
0.015198382 -0.58854866 0.85096866
0.014490001 0.97630554 0.76867449
0.0146021 0.34250972 0.51931697
0.0146899 -0.10584279 0.82806295
0.015753374 -0.56394517 0.86560971
0.015842605 -0.67026496 0.76420593
0.014899598 -0.34438109 0.50201011
0.014975199 -0.5346663 0.76438242
0.0151044 -0.47268283 0.9761579
0.0154409 -0.59929174 0.84881067
0.015604299 -0.14961423 0.83400255
0.015633598 -0.55997449 0.93348747
0.015687199 -0.37172887 0.51676136
0.01590186 -0.59806776 0.86189944
0.0160749 0.97562629 0.7527414
0.016230999 -0.61443073 0.75595015
0.0163383 -0.53674573 0.95138407
0.016382199 0.95595199 0.73226595
0.016506499 -0.65376186 0.75428647
0.016535798 -0.50652117 0.96945989
0.016638199 -0.04891897 0.44736671
0.016728399 -0.53812617 0.74196434
0.016765 -0.0082296748 0.81077731
0.016719786 -0.60084933 0.7245031
0.016847901 0.033939086 0.80298686
0.016850699 -0.16733707 0.437994
0.0171868 -0.19174896 0.84413892
0.017250199 -0.61283565 0.83095104
0.017269699 0.74083841 0.82352066
0.018370362 -0.67873824 0.79053235
0.017665099 -0.22546427 0.44721961
0.017864699 -0.38974538 0.53021401
0.019990979 -0.60416728 0.88065547
0.0180647 0.78996831 0.82129741
0.0183548 0.17506337 0.80872923
0.018476799 -0.54307997 0.77104872
0.019485423 -0.68031561 0.77070791
0.018766901 -0.63518739 0.75232691
0.018793698 -0.24085872 0.86859232
0.0190595 0.69577032 0.82009399
0.020259582 -0.64541787 0.813384
0.0193034 -0.53627115 0.76600856
0.0193912 -0.55903095 0.76589483
0.019673999 -0.53106904 0.79633367
0.019673999 0.28627104 0.81360221
0.019693499 0.13170175 0.80618644
0.0197984 0.079360001 0.79975212
0.019808101 0.23261601 0.80957562
0.0198252 -0.5163095 0.79774243
0.019939799 -0.57457715 0.75566572
0.019956479 -0.55834496 0.7338419
0.020521341 -0.61000752 0.84270537
0.020298198 -0.61684656 0.760993
0.020322599 -0.51402086 0.79452044
0.0203909 -0.27118638 0.8832674
0.020410398 0.83587837 0.81443751
0.02491151 -0.59232491 0.71392399
0.020566501 0.40186727 0.5345366
0.02074825 -0.61618602 0.71707785
0.027466858 -0.67242199 0.75142694
0.020761499 0.97665536 0.78309417
0.0208591 -0.5889253 0.74086666
0.021007799 0.80319488 0.69379425
0.022572841 -0.68799496 0.78471524
0.0210444 0.75220871 0.69616836
0.023826256 -0.56550509 0.75007391
0.022133259 -0.60420519 0.86371297
0.0213346 -0.61748165 0.71981472
0.021514468 -0.58330685 0.75954342
0.0214126 0.85054177 0.69617391
0.021453999 -0.40177381 0.54534304
0.021808742 -0.60426915 0.72499061
0.021507699 0.70169187 0.70459914
0.021602798 0.34305203 0.81766635
0.0216906 -0.30655292 0.90416878
0.022166099 -0.34012884 0.92872417
0.022588992 -0.59960151 0.74365926
0.022251399 0.44547823 0.54605377
0.022855764 -0.56572902 0.77027982
0.025505962 -0.68692708 0.77440476
0.022863317 -0.54553902 0.77617949
0.022683 -0.60629493 0.73143137
0.022778099 -0.65704936 0.75053775
0.022902399 0.48603401 0.56797057
0.022990199 -0.40778229 0.96216017
0.023070699 0.65408903 0.81504929
0.023095099 0.87513983 0.80961502
0.025103316 -0.68905973 0.7920084
0.023148699 0.65021235 0.71459532
0.026562925 -0.63828689 0.76010585
0.023346199 -0.55377328 0.75749898
0.023497399 0.89248204 0.70353013
0.023551099 -0.56376565 0.78690565
0.023663199 0.51258749 0.60326791
0.025254874 -0.69914877 0.78377014
0.023861989 -0.59371507 0.73319721
0.024197115 -0.61933529 0.84498489
0.024089999 0.53426021 0.63953882
0.024126498 -0.41691774 0.56021059
0.024131399 0.51549816 0.80224031
0.024263099 -0.37521109 0.94889897
0.024937671 -0.58181733 0.74432814
0.0253064 -0.61303425 0.73499209
0.030093031 -0.68416762 0.80139613
0.0246362 -0.44048294 0.97395915
0.0246874 0.53950059 0.69261205
0.024728799 0.5958147 0.7263844
0.02659636 -0.65566826 0.8200236
0.024953099 0.60388482 0.80828261
0.0251482 0.4067679 0.81433761
0.0252799 0.45954439 0.80610466
0.026485318 -0.70080078 0.7768572
0.025501799 0.56171268 0.72866887
0.025667749 -0.60851121 0.76845169
0.025808999 0.97553599 0.74144614
0.028142843 -0.62373662 0.72464281
0.025867499 -0.60234958 0.73125017
0.025867499 0.55851024 0.80282938
0.0311758 -0.6810028 0.75824511
0.026121099 0.91286284 0.80679089
0.0261309 -0.58124727 0.77748317
0.026325999 0.53079021 0.72889996
0.027006298 -0.43012136 0.58231056
0.0271136 0.92872834 0.7148174
0.0274159 -0.65759391 0.75201178
0.027664699 -0.60110712 0.88281363
0.0278378 -0.47015098 0.97967631
0.0279621 0.99498689 0.76955611
0.028858174 -0.61733419 0.71918494
0.0281353 -0.51775515 0.74714792
0.029717594 -0.62740099 0.72947007
0.028181599 -0.58193511 0.91261315
0.029396757 -0.69243127 0.77130592
0.028501 -0.50463247 0.73813373
0.029251559 -0.69692397 0.77060455
0.02924946 -0.63312751 0.71213204
0.029076498 -0.58909005 0.9005456
0.029191099 -0.53318125 0.74087101
0.0292203 -0.61525029 0.72647768
0.029252 0.99377936 0.76012492
0.033168092 -0.70698321 0.77593851
0.033993706 -0.50675398 0.72216696
0.029890899 0.94959629 0.80143201
0.0301884 -0.56249058 0.93468308
0.030182276 -0.62693805 0.70790172
0.0304274 -0.50638872 0.97144908
0.030732155 -0.69850206 0.79426575
0.031363893 -0.60707772 0.86527324
0.030841898 -0.44370568 0.60655189
0.031063799 -0.53936547 0.95642543
0.031214999 0.9581219 0.72716373
0.031619698 -0.55422246 0.73125422
0.03444064 -0.70975596 0.78515619
0.031800199 0.99631834 0.77790749
0.035321515 -0.69830334 0.7803936
0.03223177 -0.6240797 0.84929442
0.033680767 -0.61344796 0.70272416
0.03479287 -0.50885558 0.79937577
0.036349766 -0.71109807 0.77981061
0.03567028 -0.58554572 0.71231306
0.036609512 -0.51157761 0.80214059
0.034118529 -0.65460891 0.8294493
0.036587711 -0.62840754 0.71856272
0.033904508 0.97637081 0.79140568
0.03408007 -0.52805907 0.7997719
0.038821332 -0.6840055 0.75602514
0.035016418 -0.45975155 0.62764293
0.039840385 -0.68798 0.76210958
0.036515713 -0.68573564 0.80527699
0.035435829 -0.56112927 0.78612518
0.035533361 -0.60007179 0.88604641
0.03565285 -0.57887316 0.77800828
0.035735749 -0.56462717 0.77174711
0.035799149 0.99382412 0.75398004
0.035818659 -0.58502072 0.75827342
0.035843041 -0.50581801 0.70923465
0.036753312 -0.69561392 0.77792203
0.040765032 -0.60126776 0.7030558
0.03601129 -0.59761274 0.76973951
0.03601373 -0.61782974 0.76399022
0.036398999 -0.60384214 0.73727763
0.036474589 -0.63878387 0.76061869
0.038945027 -0.69448775 0.76479286
0.036676969 -0.66058087 0.75483763
0.036701359 -0.54292804 0.78142399
0.036776949 -0.47886971 0.64833558
0.036791578 -0.67608899 0.75205046
0.038904514 -0.62267035 0.72446781
0.038292166 -0.63288158 0.71702862
0.03918742 -0.63293839 0.72259271
0.038104877 0.97774184 0.73826808
0.037150018 -0.49862117 0.66808915
0.037680991 -0.63895261 0.70697618
0.037281699 -0.51550704 0.69035864
0.041573782 -0.63625139 0.7013762
0.039820358 -0.63088924 0.71155059
0.039110888 -0.60520309 0.8685075
0.038600869 -0.51051152 0.73533851
0.038786981 -0.70717299 0.77529013
0.042184498 -0.61575031 0.69843674
0.041460715 0.99869764 0.7816059
0.040117558 -0.5295049 0.73433334
0.04384597 1.0090241 0.77362931
0.040317509 -0.62624222 0.85076869
0.041734494 -0.69985819 0.7680099
0.04073935 -0.55095863 0.73190588
0.045817446 1.0073525 0.76491702
0.041252162 -0.65348583 0.83319885
0.042452425 -0.58222795 0.71224773
0.044188 -0.71212626 0.78547633
0.039115191 -0.70592427 0.79355031
0.042355418 -0.68168646 0.81043339
0.043906946 -0.63091469 0.71527547
0.04234625 -0.58330524 0.75510645
0.043355815 -0.5472002 0.77831888
0.042724159 -0.60197902 0.73392594
0.043162078 0.99553865 0.75285113
0.041091155 -0.62340498 0.69893128
0.049976557 -0.67674726 0.75232804
0.048427571 -0.66335684 0.75699264
0.048453972 -0.63772005 0.76076788
0.052843791 -0.68848228 0.76024383
0.057145085 -0.68377632 0.75556684
0.056856561 -0.63891774 0.70444494
0.048356909 -0.63804209 0.70575589
0.052195285 -0.6248526 0.69843286
0.048356909 -0.62530988 0.84997231
0.048586022 -0.60262275 0.87025195
0.04965134 -0.58421576 0.71153295
0.048356909 -0.52856123 0.73572499
0.048359349 -0.51037103 0.70642275
0.048359349 -0.50972253 0.72211879
0.048361789 -0.57689977 0.91013485
0.048364218 -0.56005532 0.93224329
0.048364218 -0.53735542 0.95411193
0.048364218 -0.50608701 0.97048664
0.048364218 -0.50408107 0.66401964
0.048364218 -0.48303643 0.6447463
0.048364218 -0.46898118 0.98039544
0.048364218 -0.46230319 0.62458849
0.048364218 -0.44658643 0.60526383
0.048364218 -0.44234505 0.97630882
0.048364218 -0.40965331 0.9638859
0.048364218 -0.37768632 0.95129657
0.048364218 -0.33898768 0.92577016
0.048364218 -0.30668792 0.90416151
0.048364218 -0.26999512 0.88368952
0.048364218 -0.23799536 0.86953932
0.048364218 -0.18675935 0.84378171
0.048364218 -0.14667587 0.83209062
0.048364218 -0.10247862 0.82739389
0.048364218 0.025136055 0.44415301
0.048364218 0.071288675 0.44498253
0.048364218 0.082352892 0.80474633
0.048364218 0.13360417 0.80995679
0.048364218 0.14209802 0.45195013
0.048364218 0.17591028 0.81395161
0.048364218 0.18512323 0.46046025
0.048364218 0.23179965 0.8160702
0.048364218 0.23388317 0.47314638
0.048364218 0.27373677 0.48714495
0.048364218 0.28825113 0.81925571
0.048364218 0.3053357 0.49868208
0.048364218 0.3370136 0.82077783
0.048364218 0.34485769 0.5136351
0.048364218 0.40046537 0.53332019
0.048364218 0.4016448 0.81726164
0.048364218 0.44311613 0.54551762
0.048364218 0.45520985 0.80984515
0.048364218 0.4846946 0.57108426
0.048364218 0.50404006 0.61381704
0.048364218 0.51454735 0.80618864
0.048364218 0.52149647 0.65025759
0.048364218 0.52771068 0.72750753
0.048364218 0.53140539 0.69099092
0.048364218 0.55837071 0.80771607
0.048364218 0.55903679 0.7263062
0.048364218 0.59308904 0.72333264
0.048364218 0.602772 0.81274068
0.048364218 0.64965105 0.7107873
0.048364218 0.65206558 0.81934476
0.048364218 0.69294602 0.82424212
0.048364218 0.70146906 0.70108074
0.048364218 0.73755282 0.82784295
0.048364218 0.75198412 0.69191492
0.048364218 0.78702646 0.82584935
0.048364218 0.8013593 0.68957514
0.048364218 0.83416253 0.81839955
0.048364218 0.84903157 0.69231832
0.048364218 0.87359041 0.81331831
0.048364218 0.8920483 0.7005114
0.048364218 0.91169041 0.81049079
0.048364218 0.92935038 0.71313858
0.048364218 0.94890594 0.8044818
0.048364218 0.95908612 0.72646743
0.048364218 0.97603083 0.79310507
0.050713178 1.006799 0.76432502
0.052815236 1.0093126 0.77389526
0.050087575 1.0100768 0.77078927
0.04836423 -0.43169898 0.58380085
0.04836423 -0.41794273 0.56362283
0.04836423 -0.40459555 0.54865211
0.04836423 -0.39372167 0.53267705
0.04836423 -0.37742853 0.51887047
0.04836423 -0.35109493 0.5042004
0.04836423 -0.32363027 0.48952335
0.04836423 -0.29896006 0.47510636
0.04836423 -0.23077679 0.44407934
0.04836423 -0.16605461 0.43314129
0.04836423 -0.1076057 0.44240427
0.04836423 -0.074237309 0.8247751
0.04836423 -0.048102066 0.8217417
0.04836423 -0.019859832 0.44416445
0.04836423 -0.0054659564 0.81581211
0.04836423 0.035434052 0.80982649
0.048366658 -0.58529103 0.9005273
0.048366658 -0.52049941 0.68766296
0.048366658 -0.51166117 0.80334359
0.048366658 -0.50730824 0.80159819
0.048369098 -0.59544927 0.88923448
0.047801863 -0.56221855 0.76819009
0.048369098 -0.52732432 0.80108327
0.048369098 -0.5130617 0.73486102
0.048233606 -0.7112121 0.78035694
0.054206837 -0.70169908 0.79704678
0.048668541 -0.6961416 0.76412779
0.048638728 -0.65175408 0.83380312
0.052929383 -0.63215566 0.71562004
0.048371539 -0.63205659 0.7203353
0.048371539 -0.6292007 0.71126735
0.048371539 -0.62208319 0.72300071
0.048371539 -0.61617839 0.76263309
0.048371539 -0.59540683 0.76864839
0.053520612 -0.58335835 0.75460416
0.050546773 -0.57227623 0.78050673
0.048371539 -0.54976654 0.73359495
0.054938648 -0.55774623 0.77215189
0.05540517 -0.61583865 0.69864047
0.056363557 -0.60124427 0.70323366
0.056278117 -0.63663715 0.70230788
0.05497586 -0.69779623 0.76602894
0.057592582 -0.70701331 0.77511787
0.058161642 -0.63820541 0.70748806
0.055538885 -0.62349421 0.72365433
0.05687014 0.99630046 0.75421524
0.054352902 -0.60240978 0.73367411
0.058092207 -0.63303888 0.71703625
0.056543168 -0.6310457 0.71145678
0.058949716 -0.6326766 0.72317284
0.054684233 -0.6773656 0.81379277
0.060033243 -0.71133208 0.78018594
0.05702861 -0.71191257 0.7864396
0.054708872 -0.58268106 0.71206206
0.055349506 -0.65255862 0.83393878
0.055989102 -0.55095863 0.73190588
0.056410901 -0.62624222 0.85076869
0.056610897 -0.5295049 0.73433334
0.057213198 0.99690604 0.78211254
0.057421386 -0.6052478 0.86847699
0.061055273 -0.69628525 0.78016919
0.057769097 -0.50817275 0.72226357
0.058127597 -0.51051152 0.73533851
0.060568243 -0.62794465 0.71888798
0.059773013 -0.50858194 0.79990488
0.059446801 -0.51550704 0.69035864
0.0595784 -0.49862117 0.66808915
0.059661299 0.9766255 0.73774207
0.064424358 -0.69974273 0.79509163
0.061032876 -0.68166757 0.80786079
0.059951499 -0.47886971 0.64833558
0.059953898 -0.67608899 0.75205046
0.060036801 -0.54292804 0.78142399
0.059917763 -0.69340771 0.76612365
0.060070999 -0.66058087 0.75483763
0.060270898 -0.63878387 0.76061869
0.060346499 -0.60384214 0.73727763
0.061314799 -0.51159388 0.80193275
0.060734197 -0.61782974 0.76399022
0.060736701 -0.59761274 0.76973951
0.0608854 -0.50581801 0.70923465
0.060926899 -0.58502072 0.75827342
0.061004899 -0.56462717 0.77174711
0.062070474 -0.57143003 0.78165674
0.061195098 -0.60007179 0.88604641
0.06694217 -0.68678766 0.76936883
0.061711997 -0.45975155 0.62764293
0.06307511 -0.70670587 0.77632535
0.061618663 -0.58535224 0.71262044
0.062587418 -0.65251344 0.831074
0.062660605 -0.52805907 0.7997719
0.062823899 0.97637081 0.79140568
0.060965449 -0.61631352 0.70104754
0.067900017 -0.61776155 0.71849799
0.067153856 -0.68084002 0.75993925
0.064496696 -0.6240797 0.84929442
0.066795707 -0.62763858 0.72933429
0.065163441 -0.70797694 0.78300989
0.066521116 -0.62623698 0.70786089
0.064928301 0.99631834 0.77790749
0.065108702 -0.55422246 0.73125422
0.064789392 -0.60664183 0.86611879
0.065513499 0.9581219 0.72716373
0.065664701 -0.53936547 0.95642543
0.067481153 -0.69234645 0.77142805
0.065886602 -0.44370568 0.60655189
0.068502173 -0.62471312 0.72451645
0.067533471 -0.69728243 0.77064562
0.067133434 -0.68264157 0.80180448
0.0663011 -0.50638872 0.97144908
0.0665401 -0.56249058 0.93468308
0.066837505 0.94959629 0.80143201
0.066971697 -0.50486815 0.72362238
0.06799005 -0.7040031 0.77641249
0.067459382 -0.60454834 0.70744312
0.067476399 0.99377936 0.76012492
0.070312753 -0.60669529 0.72979778
0.067537397 -0.53318125 0.74087101
0.068617135 -0.631975 0.71273267
0.067652002 -0.58909005 0.9005456
0.071805403 -0.61234117 0.73537409
0.068227395 -0.50463247 0.73813373
0.068546899 -0.58193511 0.91261315
0.068593204 -0.51775515 0.74714792
0.068698004 -0.67290282 0.75141013
0.068766296 0.99498689 0.76955611
0.068890698 -0.47015098 0.97967631
0.069063798 -0.60110712 0.88281363
0.069215 -0.54501915 0.77803636
0.069332004 -0.65759391 0.75201178
0.074315161 -0.59808207 0.74502563
0.069614902 0.92872834 0.7148174
0.070938513 -0.67199945 0.80332428
0.069722198 -0.43012136 0.58231056
0.070983395 -0.70006543 0.78302902
0.073506743 -0.56470954 0.77093399
0.070039198 -0.63816106 0.7601487
0.070139095 -0.58382297 0.75955862
0.070250839 -0.64871413 0.82524872
0.070402503 0.53079021 0.72889996
0.070786856 -0.69627273 0.77627081
0.070607297 0.91286284 0.80679089
0.070614599 -0.58124727 0.77748317
0.070580684 -0.61946547 0.76529199
0.0708609 0.55851024 0.80282938
0.070919402 0.97553599 0.74144614
0.072356053 -0.59003723 0.71529484
0.071226701 0.56171268 0.72866887
0.071855456 -0.68928415 0.79161823
0.071448602 0.45954439 0.80610466
0.071524099 -0.63721263 0.8326785
0.071580201 0.4067679 0.81433761
0.077002041 -0.60453379 0.72447944
0.071775302 0.60388482 0.80828261
0.072286397 -0.57147038 0.74991572
0.071999595 0.5958147 0.7263844
0.072041102 0.53950059 0.69261205
0.072092295 -0.44048294 0.97395915
0.072357319 -0.60095656 0.7283594
0.072465397 -0.37521109 0.94889897
0.074262187 -0.68793267 0.78275508
0.072596997 0.51549816 0.80224031
0.0726019 -0.41691774 0.56021059
0.072638497 0.53426021 0.63953882
0.0727726 -0.61890215 0.84501249
0.073037066 -0.57404369 0.74626404
0.074510112 -0.60413849 0.86432809
0.073065199 0.51258749 0.60326791
0.073192 -0.56376565 0.78690565
0.073230997 0.89248204 0.70353013
0.073396802 -0.55377334 0.75752401
0.0734993 -0.63692659 0.75699586
0.073579699 0.65021235 0.71459532
0.073633403 0.87513983 0.80961502
0.073657699 0.65408903 0.81504929
0.073738202 -0.40778229 0.96216017
0.073826 0.48603401 0.56797057
0.076814823 -0.55865294 0.73373264
0.073969901 -0.65704936 0.75053775
0.074065 -0.60629493 0.73143137
0.074065 -0.54597807 0.77566171
0.076409549 -0.6160242 0.71760839
0.074477099 0.44547823 0.54605377
0.074562401 -0.34012884 0.92872417
0.075037897 -0.30655292 0.90416878
0.075125702 0.34305203 0.81766635
0.075220793 0.70169187 0.70459914
0.0752744 -0.40177381 0.54534304
0.0753159 0.85054177 0.69617391
0.076859847 -0.60396969 0.88054329
0.0753939 -0.58251905 0.7596069
0.075410999 -0.61748165 0.71981472
0.075571895 -0.55241954 0.75592434
0.0756841 0.75220871 0.69616836
0.075720601 0.80319488 0.69379425
0.075888902 -0.5889253 0.74086666
0.075966895 0.97665536 0.78309417
0.07716728 -0.68039811 0.77070946
0.079253763 -0.66944259 0.76043731
0.076120496 -0.65079629 0.81008482
0.076161996 0.40186727 0.5345366
0.076166898 -0.51402086 0.79452044
0.076155409 -0.60985792 0.84330726
0.078352235 -0.67886925 0.79044354
0.076317996 0.83587837 0.81443751
0.076337501 -0.27118638 0.8832674
0.076235145 -0.61097193 0.76408947
0.076788694 -0.5163095 0.79774243
0.076805696 -0.57457715 0.75566572
0.076920301 0.23261601 0.80957562
0.076930098 0.079360001 0.79975212
0.077034898 0.13170175 0.80618644
0.077054396 0.28627104 0.81360221
0.077061698 -0.53106904 0.79633367
0.077354401 -0.55903304 0.76590788
0.077439696 -0.53627115 0.76600856
0.077668898 0.69577032 0.82009399
0.077934697 -0.24085872 0.86859232
0.079889134 -0.62168628 0.75405133
0.082522459 -0.56205428 0.73849624
0.081328303 -0.66492081 0.79215753
0.081292048 -0.57959181 0.7433908
0.078263894 -0.54307997 0.77104872
0.078373596 0.17506337 0.80872923
0.078663796 0.78996831 0.82129741
0.078863695 -0.38974538 0.53021401
0.0790442 -0.22537428 0.44721973
0.079458699 0.74083841 0.82352066
0.079478197 -0.61283565 0.83095104
0.079541594 -0.19174896 0.84413892
0.079906605 -0.59978807 0.72428149
0.082337111 -0.67513883 0.77922457
0.079880498 0.033939086 0.80298686
0.079963498 -0.0082296748 0.81077731
0.079985395 -0.16707009 0.43799448
0.082621038 -0.52230233 0.74813014
0.084123313 -0.56709671 0.74026692
0.080090195 -0.04891897 0.44736671
0.0801927 -0.50652117 0.96945989
0.08424218 -0.65112472 0.75735724
0.080346301 0.95595199 0.73226595
0.0803902 -0.53674573 0.95138407
0.080755308 -0.59825212 0.86047012
0.080653504 0.97562629 0.7527414
0.081041202 -0.37172887 0.51676136
0.081535622 -0.55983722 0.93348306
0.081124097 -0.14961423 0.83400255
0.081287503 -0.59929174 0.84881067
0.080907971 -0.56359679 0.8644523
0.081434175 -0.58883852 0.85087597
0.081978098 -0.53487229 0.76392984
0.081624001 -0.47268283 0.9761579
0.084186226 -0.57867843 0.7430234
0.081828803 -0.34438109 0.50201011
0.081831299 -0.67086554 0.7684167
0.082038499 -0.10584279 0.82806295
0.082126305 0.34250972 0.51931697
0.082238495 0.97630554 0.76867449
0.088702396 -0.57690763 0.76886517
0.088482559 -0.59520531 0.87667853
0.082679793 -0.58893329 0.90013587
0.084629759 -0.6446721 0.79999733
0.082799301 -0.46893227 0.65614194
0.082860298 -0.57934302 0.91426867
0.089753151 -0.55684251 0.75654972
0.082957797 -0.59664094 0.83864725
0.082982197 -0.50680733 0.6945219
0.0831431 -0.62949324 0.81184798
0.084969379 -0.5816381 0.85818428
0.083367497 -0.63431585 0.75316942
0.083372295 -0.075751215 0.82455045
0.0834869 -0.45348904 0.63422489
0.083501592 -0.59537208 0.76136237
0.083796598 -0.48870075 0.67415851
0.084385879 -0.59197044 0.86068392
0.083845392 -0.048199333 0.8201735
0.08588168 -0.56070894 0.86032051
0.083952695 -0.49313837 0.7157768
0.084035598 -0.50443172 0.74460113
0.084167302 0.29979295 0.50541246
0.084535405 -0.29112196 0.47161299
0.085677356 -0.58220178 0.86348462
0.085266456 -0.56423587 0.87245768
0.084808603 0.95080853 0.78870314
0.091061756 -0.59918642 0.81740844
0.085064597 0.22887026 0.47996259
0.085071899 -0.31735563 0.48631024
0.085230395 0.18496372 0.46535099
0.085335299 0.26986241 0.49536514
0.085352302 -0.11513396 0.44484013
0.085391298 -0.61395991 0.75546491
0.087277338 -0.50816989 0.96785849
0.085756823 -0.55883324 0.77819675
0.0857815 0.14304219 0.45415175
0.085959494 -0.49722981 0.72977066
0.086349599 0.44532806 0.54556048
0.086417899 -0.59491354 0.89397347
0.086630002 -0.47813761 0.97603434
0.090359755 -0.58966416 0.82632238
0.086778805 -0.52418369 0.77723074
0.087308154 -0.52591777 0.77968526
0.087161303 -0.65084928 0.76513261
0.086703524 -0.65983105 0.77827501
0.087159202 -0.58429253 0.8383739
0.089261785 -0.53670782 0.94894063
0.087644398 -0.59481633 0.76037341
0.087722398 -0.43840683 0.60893619
0.090380952 -0.59016192 0.87160385
0.090528563 -0.58310789 0.84502888
0.088068701 0.55735391 0.78810745
0.088985287 -0.58079803 0.85459983
0.088434502 -0.62565207 0.80195767
0.088722199 0.40158275 0.53598911
0.088924602 0.92636758 0.72217029
0.089249283 -0.58257949 0.86787659
0.089978181 -0.59713346 0.88442785
0.0892611 0.5140844 0.78662884
0.089473203 -0.48268133 0.9764505
0.089741394 -0.54877669 0.7502687
0.089985296 -0.61244613 0.75731862
0.090555899 0.46004781 0.79727852
0.0906315 0.093010552 0.44741946
0.091501847 -0.60399324 0.81061137
0.090955794 -0.5245747 0.752581
0.093505189 -0.56246275 0.87390053
0.094398201 -0.5089485 0.97193503
0.091477603 -0.42671168 0.58191752
0.091587305 0.48992777 0.56412137
0.091850601 0.95435053 0.74739814
0.091913998 -0.55507755 0.75478774
0.091923803 0.60482639 0.79420519
0.091939695 -0.59738624 0.76200563
0.092624694 -0.61782354 0.76603854
0.092739038 -0.62944597 0.78550804
0.092223696 -0.5673157 0.91639864
0.097698621 -0.58491164 0.86928552
0.092694297 -0.53652972 0.95080435
0.092889398 -0.4840517 0.97780603
0.093598634 -0.57841265 0.85429853
0.093045503 0.91560179 0.79190469
0.095185056 -0.55896294 0.863083
0.093364894 0.56287694 0.73656899
0.093469694 0.95259374 0.76908511
0.093620896 0.047493979 0.44822299
0.090599485 -0.58227068 0.85009319
0.094179302 -0.44812852 0.97086877
0.094289094 -0.41381633 0.55939204
0.094486602 0.59795058 0.73507911
0.094554797 0.53147084 0.73600215
0.094696298 0.01310299 0.450867
0.094718203 0.34208044 0.52349824
0.094815701 -0.31170183 0.48702013
0.094854802 -0.54543382 0.93194282
0.094935194 -0.39790642 0.54568875
0.0952425 -0.57617366 0.83330202
0.095566794 -0.52945369 0.77319646
0.096396267 -0.60428518 0.77697819
0.095805697 -0.57662416 0.90289038
0.09622369 -0.53809792 0.76399463
0.095847197 -0.55635339 0.77185255
0.095998399 -0.60043871 0.79606867
0.096086197 -0.57956338 0.89670426
0.096098304 0.89134353 0.7147252
0.095538601 -0.57864749 0.7697891
0.096351907 0.44978628 0.52826822
0.096359298 0.5385707 0.68451738
0.096712798 -0.49092627 0.9809891
0.097810537 -0.54143661 0.93801844
0.097217605 0.65740174 0.80030495
0.0974712 -0.50512707 0.751656
0.097517505 -0.4650819 0.96590614
0.097541898 -0.53434849 0.95987928
0.099041283 -0.58497077 0.88738143
0.097810097 0.51925683 0.58932757
0.097815 0.65261489 0.72516954
0.097934499 0.53659409 0.62983096
0.097951502 0.40741438 0.52360529
0.098229498 -0.59014851 0.79311156
0.098456293 -0.5525189 0.9188534
0.099944517 -0.5754782 0.85732979
0.098575801 -0.53057069 0.75545049
0.0988952 -0.33610174 0.50469458
0.098914698 0.55949974 0.7710591
0.098936602 0.53055525 0.7340495
0.10029674 -0.52903384 0.95636344
0.099031702 0.87936491 0.79466534
0.099287793 -0.384395 0.5328573
0.099312201 -0.53383201 0.95730317
0.10045882 -0.55743539 0.87019771
0.099424303 -0.57809049 0.82004571
0.099468201 -0.58760488 0.87527317
0.1000681 -0.54172605 0.76937604
0.1001607 -0.16682726 0.44840991
0.10210487 -0.57874048 0.85252225
0.1003607 -0.46814165 0.96574175
0.1005606 0.85096425 0.70969272
0.1006313 -0.55688256 0.7742576
0.1006874 -0.36392471 0.52010101
0.1007191 -0.58819431 0.88182718
0.1007313 -0.21422414 0.45059222
0.10086299 -0.067029722 0.45334309
0.1008727 0.53789407 0.68257821
0.10463363 -0.57343888 0.80222839
0.1012409 0.41202226 0.80498767
0.1013897 -0.48791698 0.73674595
0.1015482 0.70368719 0.71704161
0.10579902 -0.57367456 0.84694916
0.1019261 -0.47393948 0.97767073
0.102148 0.80483425 0.70850319
0.1023089 -0.47975287 0.72523916
0.1023504 0.92321235 0.7417838
0.1024065 -0.49906105 0.98715085
0.1024626 -0.53523242 0.76043332
0.10513163 -0.5808019 0.86819917
0.1026357 0.75385588 0.71095026
0.1027503 0.56093138 0.75175858
0.1028551 -0.51818001 0.75738114
0.1031136 0.45936102 0.78855234
0.1031526 0.34370971 0.52736109
0.1031843 -0.56672013 0.78605253
0.10304935 -0.56601155 0.90249121
0.1033672 -0.43817183 0.64330363
0.1034257 0.51009858 0.75961679
0.1036232 0.84047478 0.79870844
0.1037232 0.53654563 0.6306718
0.1037842 -0.55852824 0.77865374
0.10569064 -0.54084337 0.76968729
0.1040646 -0.41179213 0.95176113
0.104089 0.91939878 0.76843619
0.10434499 -0.45123985 0.66624081
0.10618596 -0.52959687 0.93320024
0.1045133 -0.5520702 0.78781408
0.10463031 -0.56748974 0.8345142
0.10592364 -0.56631291 0.89029908
0.1048961 0.60436553 0.77295136
0.10493509 -0.38529706 0.93223643
0.10497171 -0.42728293 0.61586857
0.1051009 0.70129973 0.80498362
0.105335 -0.49592185 0.75327194
0.1054716 -0.12284007 0.45750868
0.10547639 0.23342933 0.80308098
0.1055447 0.4657605 0.49435103
0.10686836 -0.57334203 0.86612898
0.1057032 0.35119125 0.81467158
0.1057471 0.28428891 0.80795181
0.105891 -0.53013921 0.76376128
0.10595919 0.60173172 0.75102776
0.10615669 -0.53789914 0.9699651
0.10634451 -0.51933533 0.98099554
0.1063567 -0.53622782 0.92281491
0.1063738 -0.011380648 0.45621324
0.1064689 -0.46911141 0.68430269
0.10708579 0.79634053 0.80402946
0.10713451 -0.41974702 0.58725971
0.1072394 -0.35365948 0.91305053
0.1074881 0.03251534 0.79441833
0.10767099 -0.57883435 0.87266237
0.1079416 -0.48698339 0.70318055
0.1079587 0.43265903 0.4905923
0.1079953 -0.48279092 0.98653024
0.1081513 0.3683278 0.51873302
0.1083025 -0.31791931 0.89349592
0.1083806 0.1742145 0.80350763
0.1083928 0.74754816 0.80707836
0.11025064 -0.57210582 0.86458427
0.1087732 -0.50557095 0.76418912
0.1088853 -0.53416324 0.78095233
0.1089585 -0.5746938 0.88094068
0.11018966 -0.52212638 0.94464529
0.10920469 0.51092923 0.75580031
0.11122014 -0.53385991 0.969679
0.10928281 -0.53726572 0.96859115
0.10958029 0.075010255 0.79255652
0.1097924 -0.5179677 0.77265257
0.110007 0.88815129 0.73832661
0.1101606 -0.2748476 0.47429246
0.1101899 -0.15703808 0.83334553
0.11031669 -0.56490046 0.82231677
0.11047269 -0.16612227 0.45931017
0.11056051 -0.28222537 0.87636715
0.1106458 -0.41009036 0.56457752
0.1107116 -0.0076379683 0.80286825
0.111036 0.12894753 0.80116266
0.1111774 -0.54590052 0.90487999
0.1113383 0.65657091 0.7469365
0.1113871 -0.11163465 0.8256858
0.1114261 0.65862542 0.77531105
0.1116578 -0.51344991 0.94353473
0.1117675 -0.52373511 0.93391174
0.1120577 0.88410765 0.76848763
0.1120601 -0.39595807 0.55123216
0.11213811 -0.32665911 0.51063406
0.11227711 0.52878749 0.5843702
0.11381516 -0.55060494 0.88848662
0.1123478 -0.19937404 0.84188664
0.1126868 -0.55899376 0.810462
0.1126868 -0.088573068 0.46595156
0.11286481 -0.20811813 0.45346087
0.1128989 -0.047616407 0.81448555
0.11508223 -0.52494597 0.91780782
0.11316469 -0.24523337 0.86265773
0.113272 0.40917173 0.48499829
0.1133256 -0.35581535 0.52620822
0.1134744 -0.30124375 0.49268043
0.1136719 -0.55176795 0.7974146
0.113784 -0.38096142 0.53940231
0.1138816 0.29172266 0.52907038
0.1139255 -0.55992478 0.83796537
0.1141303 0.18776821 0.48855686
0.1142059 0.45335847 0.45538837
0.1142132 -0.078538954 0.82078558
0.1143156 0.51097447 0.7521984
0.11433029 0.4853631 0.45677519
0.11459599 0.8484112 0.73661834
0.11444618 -0.5670265 0.86466825
0.115052 -0.13087414 0.47244972
0.1155474 -0.53518242 0.90373367
0.1156714 0.53807002 0.7272836
0.1157518 0.22690114 0.5046702
0.11575919 0.14934038 0.4740988
0.1161737 -0.52089471 0.93137866
0.11789994 -0.52487063 0.96285325
0.1165029 -0.49301368 0.75604504
0.11683449 -0.54669011 0.98544669
0.11688329 0.43779531 0.45204222
0.1169564 -0.48212719 0.74316913
0.1169906 -0.52996302 0.99283499
0.1170174 -0.45276156 0.93420863
0.11703929 0.84497023 0.77040827
0.1170954 0.80331433 0.73821753
0.1172222 0.7059027 0.74426556
0.1175319 0.26398185 0.5226379
0.11815128 -0.53678137 0.88679343
0.117644 -0.038765438 0.46689647
0.1178464 -0.55830181 0.87809527
0.1183829 -0.42000076 0.65473235
0.1184926 -0.51815099 0.99798054
0.11859259 -0.45635894 0.93612438
0.11864381 0.75371206 0.74126399
0.1186852 -0.56471449 0.85271406
0.11870229 -0.54692769 0.98345828
0.1189193 -0.47265849 0.73417556
0.11894129 0.70487362 0.77753484
0.11895099 0.5060097 0.49657434
0.1190193 0.5211252 0.54730779
0.1192071 0.10919348 0.46466267
0.12076358 -0.53871894 0.875889
0.1195899 -0.42981482 0.67940825
0.1195996 -0.41021496 0.62910241
0.1197045 -0.55116069 0.8293637
0.12064062 -0.54293853 0.98260993
0.11978009 -0.13679537 0.47028041
0.11993369 0.80083013 0.77444726
0.1199532 -0.5280292 0.78555208
0.1200337 -0.44312209 0.93278241
0.1204872 -0.51587021 0.96258855
0.120536 -0.42130664 0.92340046
0.1208871 -0.26593578 0.47611701
0.1209286 0.50817382 0.45693201
0.12116019 0.75180078 0.77747875
0.1216747 -0.51441014 0.77692378
0.12168451 -0.10868157 0.48186845
0.12200139 -0.40431288 0.60323364
0.122633 -0.50180322 0.76721674
0.12267449 -0.20549686 0.45444548
0.12271351 -0.55298764 0.86084056
0.1229427 -0.51937091 0.90627527
0.1231378 0.48140368 0.40716124
0.1231841 -0.16427526 0.46159339
0.1231914 -0.39978755 0.90672493
0.12303783 -0.30177891 0.49488831
0.12359621 -0.13629958 0.46867526
0.12365229 0.46155885 0.77945912
0.1237327 -0.11644442 0.48176992
0.12399119 -0.44430834 0.69744003
0.12419361 0.51549041 0.40850073
0.1251763 -0.55451572 0.84596783
0.12521769 -0.50736177 0.99840939
0.12527379 -0.50790817 0.93849939
0.125881 0.28725079 0.5415836
0.1259419 -0.064013273 0.47978342
0.12599801 0.069784731 0.46282887
0.12750283 -0.53999096 0.98040199
0.1263272 -0.16411853 0.45945269
0.13551348 -0.33333364 0.51838589
0.12697427 -0.54608291 1.0077028
0.12708311 0.41765103 0.79768449
0.1271562 0.54960442 0.66807067
0.1273026 -0.46183354 0.95479983
0.12732211 -0.37469092 0.89093381
0.1274903 -0.1167975 0.48009324
0.12786581 -0.39864376 0.58083254
0.1278975 0.35295981 0.80345362
0.128334 -0.52136463 0.89174879
0.12840709 0.23043953 0.78921181
0.12864611 0.040914595 0.46528757
0.128968 -0.51241279 0.93773258
0.128985 -0.54555571 0.85797554
0.1291167 -0.53613263 0.83905596
0.12923621 -0.25868908 0.47456664
0.1295718 -0.55468547 1.0038121
0.1296093 -0.462401 0.71501142
0.13657032 -0.54099506 0.99225825
0.13121223 -0.55098218 1.0024387
0.13179815 -0.50768429 0.92238837
0.13081381 0.51981032 0.37131125
0.13110159 -0.53184628 0.81707639
0.1312113 -0.089875564 0.49271333
0.13133571 0.27036428 0.78880352
0.1315819 -0.45473552 0.74908692
0.13183309 -0.39845914 0.672153
0.1318599 -0.16421728 0.43410546
0.1318624 0.5530889 0.61622363
0.13192819 -0.09741725 0.48857212
0.13214031 -0.53659028 1.0107625
0.1323671 -0.39048588 0.56774777
0.1324451 -0.33520308 0.87557769
0.13248169 0.014510796 0.4699325
0.1324988 -0.13752213 0.4483611
0.1325963 -0.38987854 0.65005195
0.13462187 -0.50520378 0.91431332
0.132706 -0.46276465 0.75434184
0.13304991 -0.51313764 0.93651521
0.13208964 -0.52319831 0.87797958
0.1330986 -0.40830103 0.69329387
0.1333449 -0.35558072 0.5327366
0.13374241 0.5363912 0.37425119
0.13532446 -0.54916632 1.0001496
0.1339545 0.25636798 0.55118573
0.13445665 0.5718649 0.10843823
0.13420737 0.56746018 0.11461805
0.134369 -0.18818264 0.44403166
0.1343812 -0.47318816 0.97349
0.13544506 0.57301551 0.095809534
0.1348343 0.55989438 0.10888726
0.1349884 0.56762171 0.097851761
0.1351469 -0.098203674 0.48651475
0.13518099 0.34010881 0.51295382
0.1351883 0.32367578 0.53131813
0.13490489 0.59809858 0.12058647
0.13541509 0.3717908 0.47806203
0.13551509 -0.29655764 0.85644507
0.13561261 -0.52540594 0.85584772
0.1356784 0.28781453 0.78868294
0.1358052 0.40413409 0.44182545
0.1358296 -0.51164937 0.95809484
0.1359954 0.19128281 0.5300411
0.13605639 -0.42099914 0.71108472
0.1361198 0.44636074 0.40194106
0.13614661 -0.3846564 0.62820101
0.1362783 0.22743143 0.54861414
0.13648559 0.53369111 0.49749565
0.13643612 0.58061272 0.12990713
0.1367757 -0.37866741 0.55544937
0.1368269 0.55363041 0.56896353
0.1369025 0.55732602 0.11940142
0.1370123 0.58115423 0.10269368
0.13712201 -0.42078865 0.87696731
0.1372025 0.54560727 0.5369575
0.13692169 0.61560452 0.1221761
0.13849236 0.61266017 0.10697002
0.13732679 0.57536709 0.14230274
0.1374317 -0.54908562 1.0137566
0.14067499 -0.55397302 1.0135269
0.13781199 0.56736833 0.13584647
0.1378828 -0.0143576 0.47979009
0.1381754 0.28855342 0.54809588
0.13822171 0.15822175 0.51515538
0.13825101 -0.46321228 0.91627032
0.13839969 0.17462601 0.78717339
0.138429 -0.43318275 0.88504767
0.1384851 -0.52051121 0.80503112
0.13849239 0.61721611 0.14003247
0.1385802 0.52981907 0.45450985
0.1387362 -0.52861172 0.97949123
0.1388728 -0.46585307 0.92017472
0.1388801 -0.39600784 0.86335051
0.13900499 -0.55082119 1.0088965
0.1391117 0.54615498 0.34749013
0.13918489 0.4954803 0.36673075
0.13920189 0.031097397 0.78257996
0.14279398 -0.43306673 0.76967025
0.13937509 -0.18391436 0.42267203
0.13963601 -0.50204343 0.99422467
0.14017971 -0.51256043 0.82926309
0.14023089 -0.53354478 1.0104607
0.14096788 0.55526179 0.10588683
0.14036991 -0.04937458 0.79917139
0.14040901 -0.44486696 0.89431828
0.1404358 -0.45998958 0.90956289
0.140448 -0.44824526 0.76672024
0.14154729 -0.54688269 0.99835426
0.1404918 -0.12002056 0.45835465
0.140604 0.13163432 0.50218791
0.14084539 -0.42045885 0.82896984
0.14090151 0.61725605 0.15209046
0.1410722 0.53635311 0.40867215
0.14110389 0.55262423 0.34732544
0.14116 -0.51757413 0.95798248
0.14145501 0.56372452 0.095662549
0.1415087 -0.43991616 0.7288447
0.1417793 -0.042742431 0.49341953
0.142009 -0.54486823 1.014691
0.14201799 0.57067138 0.091685474
0.14278372 0.61149096 0.098022819
0.14216 -0.25626221 0.84021235
0.14226499 0.58568102 0.096510477
0.142272 -0.0096898805 0.78539765
0.1421992 0.6268093 0.11994332
0.142362 -0.38166699 0.60734314
0.14246699 0.073976785 0.7811327
0.14280801 0.52771664 0.34308296
0.142894 0.55405766 0.11847401
0.14297201 -0.40542972 0.82146406
0.14300039 -0.25990257 0.10148244
0.14311455 -0.27590397 0.10644083
0.143208 -0.16609423 0.8259688
0.14321801 0.5417338 0.70680296
0.14321999 0.62364185 0.10637175
0.14323699 0.59320039 0.15132177
0.143364 -0.53396749 0.97764897
0.14364076 -0.54734278 1.0040816
0.1440184 0.63052738 0.14451146
0.14354199 0.12509857 0.7850849
0.14371355 -0.25651181 0.11412118
0.14369799 -0.11877485 0.81949437
0.14599869 -0.50665742 0.93280506
0.1446612 -0.28658175 0.092010796
0.14399299 -0.082375988 0.81318384
0.143996 0.55050558 0.3740468
0.144023 0.61795557 0.1678535
0.144235 -0.43976358 0.77551109
0.144254 -0.50556576 0.92052037
0.144881 -0.51873213 0.9562515
0.144942 0.25581953 0.56692481
0.14498299 0.56269741 0.13639922
0.145018 -0.20909569 0.83193564
0.145118 -0.072786123 0.50324315
0.145183 -0.29154179 0.10023654
0.145193 0.56263638 0.33063293
0.14529799 0.51197886 0.7428171
0.145317 0.56913501 0.14348666
0.145347 -0.13959581 0.41379243
0.145364 0.55084622 0.6607548
0.1453317 -0.25568616 0.091964014
0.145483 0.28933212 0.55170119
0.145503 -0.16523196 0.40470165
0.1472704 -0.49885046 0.9117505
0.14515091 -0.28273579 0.11576137
0.14562 -0.23551472 0.10484053
0.14587165 -0.23527811 0.11844262
0.146029 -0.37104985 0.69494385
0.146193 -0.50917619 0.7929849
0.14658946 -0.27738526 0.086610258
0.146222 -0.4768692 0.76209319
0.1463 -0.35609221 0.84298313
0.14643401 0.58357078 0.094353691
0.14634578 -0.55196786 1.008184
0.146512 0.62017542 0.097467981
0.146551 -0.078968324 0.50237638
0.146578 -0.38044366 0.71372753
0.14658101 -0.4218331 0.78784835
0.14685601 -0.29406962 0.11390185
0.14691201 0.63259912 0.16868377
0.14741422 0.55383486 0.1041522
0.14717801 0.61748952 0.18621643
0.147285 -0.3649534 0.67519146
0.147366 -0.23581307 0.094150096
0.14737999 -0.42940199 0.79065722
0.14743899 0.60050344 0.16391675
0.147522 -0.37750611 0.59422946
0.14759201 0.58557069 0.15228626
0.1479 -0.082754061 0.49890172
0.14831662 -0.55017132 1.0117375
0.14797801 -0.53624469 0.97720098
0.148073 -0.29203096 0.088882521
0.14813599 -0.50318795 0.88968551
0.1481038 -0.29050568 0.12244179
0.14823399 0.57335645 0.31340158
0.14837 -0.39463177 0.7315377
0.14862189 0.56685466 0.091463022
0.148524 0.55075669 0.32184118
0.14877801 -0.29672363 0.097850092
0.14952847 0.57168871 0.34713525
0.148931 -0.49964982 0.78245348
0.149124 0.5572235 0.61132288
0.15016507 -0.10146806 0.45676643
0.149243 -0.3051081 0.5037517
0.14941901 0.61345297 0.22032243
0.14951099 0.22766587 0.56497866
0.149516 0.632689 0.18996596
0.149626 -0.33431542 0.52455175
0.1518043 -0.28445694 0.082109407
0.149877 -0.48797208 0.77232486
0.149894 0.5535754 0.11689557
0.15000901 -0.41858622 0.74668401
0.150124 -0.36157399 0.65722132
0.15025 -0.53605294 1.0042304
0.150353 0.56607872 0.30752486
0.15042099 -0.18047225 0.39798105
0.150445 -0.25222832 0.14299193
0.15048699 -0.47368222 0.93684709
0.15178145 0.55766231 0.10200965
0.150621 0.60603309 0.26035053
0.15081601 0.57927448 0.33576798
0.150884 -0.35441354 0.5418027
0.15194033 -0.23767973 0.084461972
0.15269598 0.57759601 0.09557841
0.150967 -0.29898459 0.11215717
0.151067 -0.23007986 0.14675398
0.15234703 0.56582969 0.095513135
0.15116499 0.46459043 0.77226847
0.151389 -0.50668156 0.92841649
0.151467 0.58947009 0.31880671
0.151474 -0.5018059 0.84841591
0.15152599 -0.50191271 0.8700757
0.15154999 -0.37273577 0.58086973
0.151611 0.5810445 0.29391798
0.15168899 0.19664125 0.55558044
0.15151699 -0.22102569 0.10895317
0.151996 0.59884733 0.30090809
0.15401402 -0.53422433 0.97463924
0.152106 0.091156267 0.49279225
0.15220299 -0.17264843 0.35510564
0.152235 -0.41052368 0.75439197
0.15234001 0.60197747 0.17992255
0.152501 -0.48922682 0.91140193
0.15268099 -0.29566821 0.12339668
0.15257175 0.63094836 0.10781799
0.15280101 0.55695975 0.57107639
0.152816 0.62929136 0.22641209
0.15283 -0.14664188 0.36283702
0.152891 -0.54535967 0.99835503
0.153025 0.57916844 0.1506999
0.15312001 -0.3703118 0.569426
0.15449874 0.56321895 0.14103414
0.153152 -0.26597261 0.082397953
0.153235 0.54266649 0.092748493
0.15325901 -0.43676832 0.8423894
0.153267 -0.22338113 0.094773993
0.15345401 -0.31715912 0.82119817
0.15475437 -0.51663208 0.95471865
0.15347101 -0.21651776 0.13009903
0.15505247 0.55729133 0.11564383
0.15449634 0.60323149 0.090252325
0.15353499 -0.28271559 0.13279009
0.15362799 0.5438084 0.4961893
0.153835 0.16752964 0.54844862
0.15415642 -0.48735553 0.90659088
0.15384699 -0.20948912 0.43569243
0.15387601 -0.29442737 0.088534519
0.15393201 -0.39488316 0.77188236
0.153969 -0.22199252 0.44793564
0.153988 -0.12441013 0.41284591
0.15412499 0.25735214 0.56885147
0.15523341 0.63904381 0.14394861
0.15414199 0.59173846 0.16158985
0.154191 -0.26409876 0.47667915
0.154301 -0.3730053 0.80519563
0.15431499 -0.26090142 0.14532009
0.154318 -0.50921005 0.98425114
0.15439999 0.53856629 0.099181145
0.15451975 0.55086857 0.087870479
0.154503 0.62624186 0.09723717
0.154761 -0.21717198 0.16574973
0.154764 0.54640043 0.45433378
0.15490499 -0.29836208 0.096376829
0.154998 0.14495435 0.53370321
0.15507101 0.35675853 0.78930026
0.155205 -0.35970864 0.64154351
0.155237 0.59274143 0.25041533
0.155247 -0.21245727 0.14643115
0.155288 0.5985772 0.21274245
0.155532 -0.36786944 0.75601947
0.155588 0.42529494 0.78625286
0.155783 0.55370975 0.53841764
0.16065347 -0.26826203 0.080830552
0.15601 -0.23570041 0.16482979
0.15601 0.37368894 0.43729526
0.156129 -0.34942344 0.7382586
0.156271 -0.091903061 0.45867169
0.15628001 0.066624381 0.49229842
0.15630999 -0.48370504 0.95967454
0.15640999 0.34630725 0.47260857
0.15771826 0.56064534 0.12594149
0.156544 0.62317884 0.26511848
0.156719 -0.20419565 0.16441658
0.16262022 0.59440947 0.08948148
0.15682399 -0.33996844 0.72051615
0.156863 -0.34056965 0.78709519
0.15807012 0.61535043 0.091185816
0.156992 -0.22558631 0.085701764
0.157122 -0.30012456 0.10983138
0.157171 0.6429981 0.16471022
0.157185 0.53998232 0.11464554
0.15738499 0.59189767 0.33622599
0.15742899 -0.5040617 0.81735384
0.15746601 -0.18557902 0.31188199
0.1577 -0.026798712 0.51215744
0.15829651 0.57704216 0.1431327
0.157978 -0.1608963 0.3138001
0.158061 0.60354638 0.3215403
0.15913796 0.56560266 0.13481142
0.158168 -0.092617452 0.45144546
0.15838699 0.59389645 0.17591673
0.15843099 0.028156884 0.77124065
0.158556 0.41746438 0.39467263
0.158646 0.14678012 0.53670239
0.158668 -0.2068861 0.41675794
0.15870699 -0.18961424 0.35041201
0.158785 -0.27279261 0.80145144
0.15897501 -0.2976332 0.12166683
0.15949783 -0.24718024 0.078918807
0.159068 0.32284889 0.50661767
0.159133 0.46407309 0.36050689
0.159182 0.038518 0.49444437
0.159265 0.61534601 0.30509186
0.159402 -0.31517741 0.76808846
0.15955999 -0.33561891 0.70130169
0.159587 0.5590468 0.4077388
0.159631 0.58722758 0.15463977
0.159738 -0.20148754 0.18327302
0.159784 0.55378139 0.13870257
0.159843 -0.28625146 0.13156222
0.15976812 -0.29140076 0.088844769
0.159953 0.64534062 0.18731104
0.16005801 -0.5369792 0.97515565
0.160267 -0.22054358 0.18727778
0.160355 -0.17323439 0.81517529
0.16405693 0.58433253 0.0918983
0.16040599 0.1973891 0.56024575
0.16041601 0.56016839 0.14500964
0.16042301 0.22683807 0.56888521
0.16046199 -0.50276935 0.92654735
0.16054299 0.31022638 0.52522767
0.160548 0.0083830608 0.50208479
0.16057 -0.35786536 0.62821078
0.16080558 -0.18969691 0.21416686
0.16085701 -0.26790503 0.14449584
0.160872 0.17016236 0.55033529
0.16216092 -0.23144941 0.079639941
0.160955 0.50610036 0.33575422
0.16127083 -0.21045309 0.21593608
0.161091 -0.17574151 0.25946608
0.16117901 -0.51822627 0.95175338
0.16135199 -0.12956625 0.8116895
0.161391 -0.13328873 0.36103934
0.16149099 -0.1960185 0.25772467
0.16167399 -0.062012039 0.51793092
0.161902 -0.28495902 0.085369438
0.161833 -0.19752154 0.30989414
0.16170642 -0.29512495 0.092853963
0.162211 -0.063648656 0.78642553
0.16251799 0.57458133 0.14960188
0.16254699 -0.46515745 0.76910669
0.16271099 -0.21864906 0.81093895
0.162762 -0.33363158 0.68621111
0.16428663 -0.29766077 0.10661817
0.163157 -0.53426456 0.97595543
0.16316201 -0.11021648 0.41019565
0.163462 -0.070684373 0.51312679
0.163562 0.53593677 0.31206128
0.163625 0.1735194 0.76058042
0.16364899 0.56796128 0.087764658
0.16405375 -0.24780546 0.1640951
0.163727 -0.095211737 0.80226141
0.16379599 0.59120494 0.17104992
0.163937 -0.51500607 0.95104688
