# .PCD v0.7 - Point Cloud Data file format
VERSION 0.7
FIELDS x y z
SIZE 4 4 4
TYPE F F F
COUNT 1 1 1
WIDTH 1562
HEIGHT 1
VIEWPOINT 0 0 0 1 0 0 0
POINTS 1562
DATA ascii
2.9174643 -47.363987 73.720741
5.1737289 -9.004528 41.468693
4.2134647 -37.624268 55.655411
3.0868874 -46.175915 72.671654
5.4150062 -18.857349 39.437492
2.4179749 -50.611877 82.352951
2.1414785 -46.93396 86.635597
6.132802 49.318848 29.836695
5.4366674 -14.694633 39.858276
2.2228007 -35.00301 85.829163
5.1218376 -28.171757 44.150852
5.4424548 -11.85359 40.366268
3.5838571 50.001282 67.025879
5.3748646 -9.7795286 41.528542
3.7365432 -40.940029 65.328194
6.2458067 52.728374 29.734219
2.7663741 -50.870628 80.901176
1.7333642 -45.077381 95.733253
2.1555305 -45.560223 89.776428
5.3743386 30.91433 44.615768
5.6352172 -4.5640364 40.972336
5.825511 8.6603022 38.331444
2.0703387 -48.460701 94.190163
5.7651844 -14.694304 39.666077
6.1871352 -31.151155 46.800972
1.8246199 -48.873138 96.946388
3.7773952 45.752037 69.176422
4.7523246 57.9869 55.339073
2.2674799 -40.848007 91.08387
2.7572536 -32.612671 84.107735
5.761199 -9.8267345 41.390442
4.9571667 -37.218971 53.426949
3.7862325 39.340721 70.217537
2.7793736 -47.236679 85.24202
3.8750529 27.018219 69.677864
6.0581698 5.798255 38.800461
2.5271392 -46.015018 89.758026
3.0672374 -49.891064 82.058617
3.2167134 -49.086445 80.10981
5.9030495 -24.019093 41.864735
2.1065207 -49.759014 96.638725
4.1657028 -42.619038 67.244804
2.8918853 -48.476082 95.440285
2.2815681 -49.39946 96.487099
2.9185843 -45.653084 88.217285
7.1671247 52.893364 26.049192
3.5697875 -48.816051 77.90609
6.058012 -7.0512028 42.480091
4.1899529 30.997561 69.37291
4.1292167 -41.610813 70.594429
4.7176318 -36.547638 62.539791
6.4934182 -14.88538 37.183296
5.5842762 57.963772 50.188213
6.1545792 -7.8330488 42.126827
2.3234115 -47.904434 97.219154
5.5013084 -36.498829 52.098217
3.3948445 -28.783787 82.333885
6.3953094 3.1978428 39.477715
6.4712782 -12.120771 38.415802
4.9518213 -35.849796 60.28484
3.2576909 -45.463402 87.41581
4.2007842 -42.374104 71.182419
2.9424434 -46.096024 89.670547
3.2489123 -47.518032 83.91124
4.6918716 -37.378159 64.722359
5.8598599 -33.267563 48.372429
7.4470859 54.56823 26.243887
2.708621 -49.234692 96.275063
6.0975113 27.902607 45.847771
9.3855 56.206032 -0.45282429
9.3154392 55.81086 0.19175179
6.6627007 -17.204815 38.35939
2.8379107 -41.846935 93.073929
9.5725431 56.230499 -1.7107047
9.4140797 55.015251 -0.32013339
9.510088 55.707096 -1.4722168
6.4895878 -7.9261985 41.950176
6.5276365 35.981911 41.454945
6.3923931 34.47411 43.399467
9.3587742 58.909531 0.57195932
6.8095598 38.892532 37.758839
3.8534918 -25.065926 80.175957
3.7532382 -47.896465 81.749413
4.6327062 32.737259 69.266754
7.1167326 41.859505 33.925297
3.0703316 -45.793282 91.826523
6.4157619 21.259565 44.222301
4.856813 -38.517517 66.603767
7.4466829 45.786201 29.657776
5.4606256 -35.485142 58.098171
6.3327847 24.997971 45.814495
6.8618803 55.180077 38.545242
9.437953 57.232063 1.6347719
6.0325594 -35.407932 50.820972
6.4086127 57.679878 45.516548
9.5459595 54.83424 0.75878268
9.6850452 57.091511 -1.0728403
3.809041 -37.310505 83.115204
6.664772 56.650784 42.391758
9.5576344 60.667015 0.61933905
9.8186502 60.264618 -0.86172646
9.4379406 56.797474 2.9117746
2.8241968 -49.129356 97.643112
3.1468978 -49.618496 97.677727
9.5272741 55.95348 2.329803
6.8511171 0.38887021 40.702133
6.5561233 31.090822 45.340214
6.7249341 17.85549 42.992489
3.6270452 -41.261009 87.336357
4.8582249 21.436579 69.942825
3.8770208 -38.488972 84.016724
4.3958001 -47.771568 76.678238
9.5908842 60.955433 2.3955309
7.3679857 54.486534 34.310337
3.2029519 -47.332203 94.096741
3.6605897 -41.496494 87.748016
4.0915246 -34.936123 81.59584
3.0140934 -49.337227 97.182869
8.1737747 55.350769 23.548954
8.0219316 50.433838 25.825354
4.8986268 7.0876074 70.51506
5.1152849 -39.302315 72.56617
7.3128347 -16.931793 36.238571
3.2034512 -44.576828 95.379524
4.4002123 -46.805279 79.044456
3.1341171 -47.602821 97.223854
10.044508 54.531723 -0.54285234
4.8595681 -0.82037121 72.748039
4.0042071 -39.58812 85.036316
3.8932695 -40.987518 86.661217
4.8942142 -40.837379 72.364525
3.343019 -49.019753 96.123558
7.2078276 -10.303641 39.341106
7.0395479 15.110839 41.908459
4.514595 -37.620781 78.363022
9.7473307 61.045628 3.6118345
7.9387665 54.810532 29.720215
8.3768816 55.994862 23.500322
3.5998998 -46.385052 91.894775
10.168462 55.302727 -1.6171403
5.2677097 -40.277397 68.543861
7.1308308 -2.3449008 42.287914
3.2764149 -48.702015 97.73793
10.25576 55.967205 -2.058485
10.308409 60.084023 -1.7137085
4.6494031 -21.162756 78.31974
10.254315 57.498821 -1.6837218
5.1649413 3.039464 71.107758
10.105224 61.768661 0.35407311
6.2272654 -35.336094 56.044827
5.255796 11.354226 70.088005
8.5639725 53.480145 23.267725
10.148472 54.50161 0.7316106
4.7864561 -36.175381 77.523834
9.8713551 -26.80759 4.8471026
9.8402624 -28.368181 5.4553933
4.8980227 -12.270871 76.266685
6.0811744 57.478783 59.36116
10.299903 61.355694 -0.96660227
9.9736633 58.64072 3.7232132
3.6747513 -47.879581 93.98391
3.5117755 -49.024693 96.711311
10.117614 62.315174 2.784801
5.361033 16.481577 70.124138
9.8562489 -26.379019 6.0854635
5.0155506 -7.5973334 75.288391
4.2632141 -45.476181 89.345482
10.089627 -29.5364 4.106534
5.1070399 -4.0118814 74.402939
8.4784088 55.974594 26.19441
9.9493942 61.2281 5.1970596
5.2150574 -39.928528 73.205147
4.175189 -45.455132 88.103195
3.9825602 -46.512928 91.75676
7.0838013 27.96043 47.494385
10.236452 55.491535 2.4681394
5.0156188 -16.517351 77.179726
7.3805532 -5.2713456 43.502937
10.081972 -29.972322 4.9640217
8.9059324 56.874172 21.796509
6.0232482 54.768398 63.171341
10.223669 56.184326 3.1297626
7.9924569 -12.574766 35.080597
6.6201901 58.058456 54.729294
10.172248 -26.455084 3.8861995
7.2604055 31.194271 45.744373
8.0584841 -15.196818 34.359993
4.5404615 -44.848019 87.203728
9.9751444 -28.982977 6.4457293
10.121475 -24.351038 5.025569
10.052057 -24.230188 6.3790598
5.9888601 -33.65078 64.711044
5.2541819 -46.727093 75.452545
10.324145 -28.657721 3.5170336
5.4881253 -43.725529 72.148567
4.9933271 -31.100401 79.336334
10.684154 57.272919 -1.8541924
3.7507691 -49.456688 97.171364
10.688522 60.946281 -1.804849
7.5264521 -5.8941808 43.470787
5.9082484 -34.453453 66.650864
5.3721876 -38.051861 74.321205
10.152524 -30.126757 6.3534346
10.239117 62.694645 5.1953821
10.698932 54.376991 -0.66030473
10.136127 61.312904 7.0495234
6.2546287 -33.183914 62.710938
10.369884 -24.457232 3.9761658
5.428575 -38.786736 74.66024
10.308847 59.459202 4.9536505
6.8353276 -35.014832 54.746315
10.397586 57.886597 3.9039776
7.6833105 -6.296628 43.161469
3.9235454 -49.252094 97.525864
4.1370096 -48.109924 93.987762
10.449023 -30.102295 3.8579323
4.7781715 -45.438416 85.045212
10.219357 -29.710218 7.1864533
9.3345299 57.820236 20.026726
5.9560161 -35.741295 68.536697
10.914186 55.584911 -2.0073299
9.2934675 55.626385 21.029684
10.454617 -30.506245 4.7886033
9.2281199 57.895077 23.40419
5.6053414 -45.852188 74.355812
7.342392 58.341125 49.791504
8.1931019 -8.4644957 39.118229
7.6726418 -28.440449 45.239311
10.120366 61.154137 10.48753
7.5390873 25.138355 47.533409
10.35085 62.85577 7.3305078
7.5515594 -31.204996 47.519928
10.872148 -29.395256 3.156008
5.7760081 -44.759827 73.271309
10.85751 54.442223 0.62682277
6.0021858 -38.02232 70.226059
6.6645541 -32.975323 60.918591
4.1756854 -47.897537 96.691704
9.5831738 57.052307 19.508675
8.5882463 -16.764997 33.83429
10.329014 -25.745348 8.9745388
4.6992745 -42.158203 89.543793
11.151406 54.743431 -0.87032503
9.9580631 60.700241 14.531679
9.4394331 58.570435 22.228006
7.5469999 -33.086323 49.388538
10.892679 -24.712688 3.0574095
11.297326 56.68573 -1.6460361
10.57231 -30.629469 6.2435694
10.375935 -23.509274 9.1952362
11.257101 55.511635 -1.5710435
6.3799691 50.252247 66.48069
4.8314548 -45.509964 88.946594
9.627471 59.466122 20.472168
5.398994 -45.595634 80.952263
5.2534223 -45.451424 83.108566
7.332479 -34.634537 53.411083
9.8108053 58.447765 18.056808
7.8062744 21.976639 46.834751
10.688349 -22.876442 5.3725758
9.8094549 60.273472 18.62804
4.7579722 -47.92672 93.760567
8.2321301 11.006217 41.342522
9.0682316 -16.291166 29.524763
6.174634 -37.163017 70.951035
10.687124 59.720669 6.5699196
5.0694733 -43.89061 87.136887
10.666744 -30.218321 7.3502154
11.226381 62.094818 -0.80957693
7.9890924 58.027069 45.814461
10.424767 62.777462 11.004189
9.0899563 -13.641889 30.112934
4.4753804 -48.867836 96.191895
10.947407 57.236671 3.8296931
7.5699291 -34.474579 52.266075
11.15372 55.576694 2.9919782
11.013801 -27.54949 3.062283
11.353365 53.181484 -1.6747268
5.6514273 -39.151608 79.901207
10.960405 -23.212759 3.9907391
5.8779783 -27.372807 76.94091
4.9792047 -46.314423 91.658142
10.738395 -22.275614 7.4580908
11.382663 54.803917 0.5117529
11.526767 59.204628 -2.3462689
10.693038 -28.859211 8.1984453
8.5860796 56.179878 38.462681
8.0554552 19.021936 46.347733
5.2690187 -43.738358 86.656387
8.6531506 -19.389633 37.817467
11.029137 -30.343809 3.8808773
6.2300272 -35.477921 72.591629
8.5738993 -20.549236 39.125713
8.8686104 -11.066853 34.938389
7.9872222 28.127075 47.739212
11.244547 63.160614 2.7462893
10.989334 58.568314 4.8313942
8.3750544 -24.543573 42.28759
6.0459609 -33.057549 75.752876
10.694547 -26.59379 9.2950497
4.7338934 -45.362961 94.540672
11.422779 52.818504 -0.99730009
11.519559 53.964714 -2.2096334
11.490308 61.549717 -1.81534
10.618704 -22.085974 11.019041
8.9919176 56.139164 34.287445
11.075257 -30.680201 4.6964378
8.2628069 16.664759 45.049671
6.5973334 39.618427 68.971718
7.2814312 -32.901352 59.380775
10.481037 59.303432 13.670113
10.803951 -21.753832 9.0665817
10.751157 59.616165 9.8803539
6.5134802 -32.896873 70.831749
6.7042928 46.432739 68.183281
8.5121775 57.469398 42.60886
11.771884 -27.789051 2.974982
10.740458 -23.940655 11.06837
9.1486263 38.790386 33.83263
6.7058115 -31.183979 68.937126
8.7937202 -7.4968209 39.282177
8.6397152 8.5557756 41.497467
5.1163273 -42.994713 91.927261
8.9291716 36.31171 37.544418
11.578616 55.212082 1.5310551
10.5243 62.444511 14.925121
10.829774 -20.801193 10.807497
12.338139 58.31918 -2.3033786
6.9033055 -30.367754 67.109138
6.4436536 -29.951698 73.738388
11.882823 60.420105 -2.3148932
11.39402 -23.497574 3.1297543
11.201925 -30.759802 6.0632157
11.295351 63.703472 4.7974029
11.593709 53.070309 0.55075246
10.097841 59.832802 22.229372
6.2080421 -46.042721 77.919189
9.8875427 -17.889954 25.352901
8.5965996 -0.62063867 44.149693
11.524865 56.97049 3.1286864
9.937582 -15.414286 25.371279
10.273266 60.889683 20.689762
11.660997 55.769962 2.3881691
9.0328817 -7.6197443 38.581486
11.314192 58.885998 6.2711554
6.8942828 6.7132359 69.541901
9.7209988 42.851994 29.297161
8.6067619 16.868311 45.360523
9.2671175 -19.265371 35.948532
9.7412434 -18.016964 29.224119
6.5692992 -23.088696 74.696854
11.305668 -30.426685 7.2360144
11.680418 -25.69994 2.6263378
8.9459953 34.215031 41.11422
10.039522 47.256657 25.569231
8.900259 5.7676735 41.931702
10.513703 61.949036 18.977365
6.8418441 -27.554867 71.683807
7.312098 -30.071291 65.185341
9.8035498 57.067417 29.594637
11.583004 58.068691 4.2103157
11.00109 -20.396255 12.68548
11.692474 54.618683 2.8641634
11.329082 -29.220673 8.1454926
11.616262 -30.039705 3.9312623
11.416789 64.098717 7.0489082
5.3559318 -48.1978 93.873764
11.016494 -22.268353 13.22356
6.6800838 -13.060233 75.363258
12.459618 57.331337 -1.9810077
8.6437645 22.084587 47.354427
11.714824 55.300838 3.4505768
8.6000366 25.083717 48.004143
5.7515011 -45.133106 88.795998
8.9573555 33.089069 43.06625
8.9683371 2.8165183 42.916389
7.9103088 -32.812828 58.078423
10.898516 -18.999329 15.682802
11.349396 -27.298248 9.3086243
8.7456264 19.298023 46.565765
11.948906 -24.125727 2.6044705
10.414463 51.271648 22.819271
10.922265 -21.056986 16.010128
10.618764 -17.283482 20.092583
5.6399393 -46.494633 91.419266
6.8255734 -8.729516 74.711914
9.9631405 -12.322844 29.89854
10.66067 -19.318443 20.066725
8.935298 -4.0916805 45.003036
11.856525 -29.422026 3.5544033
10.331054 -19.095364 25.27075
11.779869 -30.382505 4.370265
7.1199217 -2.3352556 71.733963
11.899747 56.771286 3.8193762
7.0736914 -42.507206 72.876762
6.9219351 -17.620367 75.282089
7.7375064 -29.980963 63.691978
11.940228 -30.537029 5.7759037
5.6608644 -47.921318 93.955589
9.8092957 -9.6700678 34.637447
9.142765 -4.9910421 44.599346
10.85426 54.078262 20.267178
7.5590878 21.136068 67.480652
12.439521 55.668854 -2.2783906
11.541949 -25.153313 11.137714
7.1452274 -5.3702631 73.545357
11.886295 58.582737 5.8438315
5.9215875 -46.178482 91.345253
12.502751 53.865814 -2.4930768
12.011863 58.03775 4.6029172
11.036543 55.346508 18.582193
7.4721975 -26.551176 69.72673
12.015386 -30.317581 6.7746944
11.180736 56.342644 17.090681
6.7067771 -40.428642 81.154419
12.185936 -30.267563 2.8618648
10.552117 58.328365 26.275316
12.158049 -31.224228 3.404053
11.926413 -29.142265 7.7586622
7.6942906 26.663036 67.260246
12.534024 52.835957 -1.9024158
11.493434 58.333927 13.04465
12.632386 -26.368933 2.5170116
11.651268 64.294067 11.032683
6.5190978 -44.434155 84.628273
11.778644 58.586849 9.4591055
8.4894314 -32.708946 56.542908
12.252648 -29.08013 2.7823138
12.048785 -22.255997 4.6148052
7.1544242 -40.192947 76.106056
12.185852 -31.762665 4.3138475
9.7489567 -6.3392353 39.376659
9.4562435 12.440107 43.720348
9.4582396 -5.6675897 43.928329
10.779291 -14.019389 25.067972
9.3184052 31.196831 46.015522
12.618769 52.426571 -1.1216706
6.9778132 -45.061657 79.579292
12.044816 -21.169392 7.3170376
10.242106 -19.422667 33.323479
8.6426525 -29.918928 61.69315
12.022839 -20.494474 8.8398285
13.821682 58.575836 -2.3279703
9.9903336 -6.693768 38.172634
11.283759 -20.55312 19.882212
12.271721 -31.81134 5.9529743
11.018038 60.130405 23.908716
12.989127 -27.442286 2.6482453
12.704857 52.671207 0.41825825
7.8634987 1.1422224 69.72747
11.994624 -19.418283 10.676853
12.513524 -22.771456 3.2705882
9.4790764 19.90093 47.566273
7.5905876 -41.41188 73.975777
12.522546 56.744297 3.8726671
11.886583 -23.671045 13.072018
10.739147 -11.153158 29.72912
12.182562 -27.870512 9.1776428
9.5532446 17.830622 46.838848
11.794663 63.794418 15.08182
8.1899014 30.415756 66.722641
12.670362 54.252331 2.8038523
9.0496922 -32.374844 54.720924
11.485111 -15.92479 19.910004
8.1545973 15.597489 67.664734
12.423826 -31.347197 7.3982902
11.732922 -21.80155 16.872763
9.4675541 -30.282152 49.021889
11.323467 61.660896 22.532715
8.1519156 -26.26063 67.909523
9.545826 22.230152 48.143387
8.8263969 55.903904 58.470413
12.681785 55.04491 3.416069
7.8846321 -22.355291 72.084511
10.362543 -7.2257013 36.670227
9.8666897 10.240536 43.841537
13.101037 60.645954 -2.2999644
8.2056055 10.785916 67.722305
12.069654 -18.586889 12.561317
9.722312 -27.68121 46.164276
9.6521111 28.362848 47.573917
9.5425301 22.429264 49.176796
9.6103773 25.079369 48.248138
13.652554 -22.869774 2.6567533
9.3769817 -31.821053 51.627415
11.5198 62.701263 21.117014
11.968813 -17.481585 14.747437
9.2221947 57.159836 54.156353
11.86244 -16.681047 16.778978
12.875094 -29.066298 2.4521751
11.641146 63.198177 20.25902
10.682965 39.17992 34.125046
12.903426 -30.459003 2.5258083
12.668544 58.478622 5.9435635
9.4684143 25.286261 51.886734
7.7373605 -45.646297 76.763824
11.070865 42.854248 29.31613
7.9419436 -43.712811 74.076118
12.810928 57.906036 4.4979787
7.4051027 -44.624237 82.028534
12.934926 -31.621517 3.1304393
9.5394707 22.844816 51.709221
13.325806 55.82399 -2.2701707
8.8110256 53.198666 62.340084
9.8049278 18.496267 48.482128
13.310777 62.180645 -0.7874667
7.4532733 -41.882923 82.500854
9.6181183 21.475849 51.668285
10.246396 -23.940178 42.783836
13.368113 61.685272 -1.7670412
9.770503 57.459675 49.764324
11.948721 63.371323 18.813612
9.37568 24.209621 55.205135
8.6164742 33.59161 66.547234
12.980467 -32.277332 4.1435528
10.441273 -20.871967 40.490105
12.616061 58.763924 9.4594269
9.9141741 -3.4119527 48.200001
10.561773 -19.225239 39.277222
8.1625156 -10.709271 73.791771
8.1967201 -17.964178 73.47036
12.434099 58.032463 12.900232
9.8962822 25.161783 49.326027
13.094403 56.840923 3.6395259
8.6885719 46.67247 66.733284
13.526409 53.834881 -2.4438307
9.9650116 28.526123 48.503727
9.9908895 -5.6163368 48.162319
8.5940323 5.0903068 68.162682
8.7341566 -26.242624 66.630455
10.101416 14.785211 47.371628
10.164412 57.036217 46.57827
9.5561914 22.041784 55.312031
10.793458 36.455624 37.681377
13.563374 57.385765 -1.7940665
13.312576 63.123306 2.6175172
9.5909986 26.748777 55.208508
12.815742 -28.17135 9.2182446
11.449313 -19.941629 28.961658
13.070445 -32.378075 5.8973675
8.3205652 -13.937711 74.034561
10.226621 0.88510245 46.888512
8.5731354 -5.6770802 70.551651
8.9412231 49.486809 65.302078
10.784161 54.418583 38.946857
10.411051 7.5183802 44.550652
11.120361 -8.8766537 34.438568
11.75899 46.699669 25.494976
10.510302 55.67923 43.35923
9.9403982 19.682232 51.57518
9.3456726 -29.781252 60.184784
10.390113 4.7092519 45.515244
9.0188026 20.812433 65.624779
7.7347178 -43.430004 84.174408
8.7824593 -21.95587 70.271416
13.316853 63.519058 4.488081
13.778742 52.716324 -1.9179908
11.221045 54.257664 34.708961
8.5904846 -8.0367374 72.418037
13.085493 -30.462482 8.1894732
13.151925 -31.882786 7.3125639
10.359716 -6.2613797 47.561256
13.961642 56.16814 -1.9127129
13.540868 -29.036329 2.5331397
9.6671963 24.447887 58.16721
13.838654 58.258972 5.8865728
13.467196 57.635799 4.012464
9.907033 20.439907 55.201851
12.16797 50.951496 22.886148
10.105658 27.44894 52.466034
8.505724 -44.759632 75.38916
13.308897 63.854965 6.7765517
11.703377 55.55204 29.848383
13.877778 52.341309 -1.2011396
9.7094784 22.077377 58.454205
13.047157 -25.833918 10.754705
14.093658 -26.318024 2.4430509
12.039062 -20.385971 25.295855
9.779233 26.778231 57.721882
12.101664 -12.749735 24.786253
13.69345 56.526299 2.855886
13.623525 54.927448 3.0986001
13.670194 54.116989 2.5286896
9.6796665 -26.285618 64.759888
9.2625084 15.980367 65.618874
13.861305 52.562428 0.16983087
13.714577 -30.493927 2.6322687
12.49262 53.763977 20.117077
9.0776157 -2.7912078 69.031349
12.622161 55.091232 18.481047
10.610315 11.942206 47.263229
14.07763 60.253029 -2.2901378
12.740582 56.165413 16.86208
14.378572 57.874798 -2.1353335
14.14609 55.063557 -1.7183967
11.883919 -11.089535 29.598911
13.06075 57.935459 12.884127
9.3430958 39.923317 66.143654
9.3352833 8.1823597 66.26545
12.150434 57.896305 26.349537
9.8875847 20.112705 58.726978
9.952343 -29.653948 58.762802
13.838079 -31.682322 3.1941805
13.403145 58.877205 9.4699478
13.991811 55.541588 2.2248492
9.6373043 17.314091 63.369873
9.0601196 -17.843536 72.01535
12.014399 53.588573 29.886173
14.660176 59.39864 -2.2149067
9.8701077 19.121872 60.728714
13.383278 -18.573631 10.543959
9.3189163 0.35299727 68.715782
9.7081404 20.843164 63.453533
11.722483 52.144161 34.690098
14.33418 55.855869 -2.4395747
9.0729179 -13.923163 72.897453
9.4767675 3.5182219 67.136482
14.337953 53.882599 -1.1670876
9.9438648 21.363094 60.743382
12.823351 -14.907455 19.62789
14.032005 -27.488285 2.7085111
14.106528 54.628647 1.3163115
13.591475 -19.809437 8.7277737
12.526414 59.903587 24.039137
14.391634 -25.24724 2.3580885
13.350294 -17.533228 12.281472
13.924106 -32.337711 4.1142864
13.726786 -20.882715 6.6417837
11.235977 33.431988 42.814365
12.861952 -21.604464 19.62492
9.7195244 13.352273 65.05687
14.217533 -22.02829 3.471705
13.545643 63.845951 10.732203
14.293209 53.956383 0.087366655
10.726213 16.533388 51.275551
11.890917 50.673512 34.833099
13.331446 -16.263393 14.361604
13.791175 -30.54413 7.9061561
10.744291 -5.9284372 51.733795
9.1239719 -42.498745 75.21653
12.561975 56.021534 26.11672
14.578894 53.908134 -1.2181807
10.934633 1.7133253 49.72139
10.797712 -3.2280426 51.686615
13.266654 -15.514964 16.389154
14.206898 -28.802177 2.9502053
14.098567 57.820156 4.5553207
14.015642 -32.482399 5.7512264
11.835036 -18.62759 37.204853
12.35363 52.138668 29.983591
9.0361528 -41.578064 77.534676
10.440407 -29.428732 57.511665
11.209769 31.60577 46.586693
9.7136145 -21.783648 68.087364
10.282625 24.645508 60.139343
14.528953 54.009785 0.43003684
11.747849 52.419025 39.297504
9.5571747 -17.302053 70.695847
14.008919 -31.992388 7.0601664
14.259927 56.470165 3.6597917
13.345467 -22.588966 16.768742
11.18576 9.1140728 47.734245
13.621863 -24.328518 12.913561
9.0605068 -44.592133 78.175545
11.087229 29.332315 49.255138
13.481098 -23.576042 15.049871
11.585407 -6.7889094 42.414707
9.5585356 -12.451541 71.507835
10.013514 5.943038 65.078766
13.525422 63.491543 14.929241
13.183519 62.61739 20.618607
11.201148 5.9537868 48.457489
13.061152 61.857674 21.914097
10.534407 53.71484 58.310596
14.399644 54.835732 3.0566218
11.886558 -6.0788136 39.068546
12.543105 44.198235 29.718182
13.323797 63.30508 18.585308
12.249008 -18.562763 33.989891
10.224289 14.782777 63.007832
14.020885 -28.252064 8.7698565
10.351606 -26.101456 63.110741
11.061791 -6.8037724 51.395103
14.577172 -30.014339 3.2736444
10.395342 51.297489 61.050476
14.823663 54.315216 -2.2659876
10.192402 47.258766 64.083138
13.946322 -25.942295 10.552943
12.257947 40.281548 34.970211
9.071022 -43.883057 80.6185
12.26162 49.35767 35.040993
13.00662 54.833649 26.070536
12.089948 -6.4177094 37.931808
10.266687 11.037268 64.019981
11.914667 -19.268337 42.164356
10.022922 -1.4796801 67.809906
14.350055 -30.071522 7.4039698
11.474201 -24.841652 47.42263
11.227077 13.327657 50.999687
14.799976 -22.831297 2.5759706
14.137896 59.24855 9.5823183
13.237575 57.788933 23.461922
13.921483 58.421295 13.019793
14.770853 -31.01442 3.7589931
14.666442 54.154026 2.432322
14.962279 60.769199 -1.7667952
10.153768 -21.806044 67.015327
10.638277 15.974675 60.122356
11.240268 2.0778322 51.625298
11.092495 55.188255 53.79015
10.000576 -16.800594 69.416794
11.389396 -26.263178 49.621689
11.793274 53.466164 43.856003
10.275826 1.2393451 65.930687
10.760744 16.319136 59.024712
11.026882 -29.053345 55.309074
12.797915 50.94207 30.093914
15.078266 56.315704 -2.4606974
12.149649 50.431957 39.571003
14.665298 58.012413 4.8027239
12.359776 -7.0088019 36.621941
15.050969 53.139706 -1.7420698
14.77502 -31.540115 4.3219519
11.297665 -27.808233 52.258118
13.378663 51.428848 22.743605
10.206306 -8.0557022 68.127625
11.154724 -3.2927604 54.697929
11.473989 55.141331 50.193871
10.800491 26.965273 59.927128
13.565959 54.242989 20.111273
11.678314 54.616451 47.709114
14.387878 -28.246475 8.9992409
13.813553 56.336895 17.212484
15.255787 -25.931484 2.4679847
14.669361 -31.390724 6.4622383
11.162024 16.98896 55.208542
13.231094 47.987091 25.661016
10.559263 25.988522 63.940205
14.811845 -31.68652 5.4463477
15.141319 -23.90391 2.5331633
12.007493 52.551224 43.666809
10.665297 8.1971674 62.929932
12.659443 -8.678606 34.511208
14.923538 -28.344545 2.3524735
10.207396 -10.695617 69.845207
10.626358 3.2098498 63.882454
15.193069 52.718136 -1.1693949
14.690038 58.697319 6.101686
11.56906 6.5887823 51.198227
11.335585 -6.2500458 54.582947
10.850485 25.500772 62.136379
11.600965 10.316128 51.031532
13.406732 -19.77667 25.246582
11.224308 -3.3649752 56.621567
10.825737 12.269176 62.397358
13.168985 -19.327282 28.960463
10.995562 -21.809523 64.712898
14.938828 56.613434 3.8469312
15.206564 52.734516 0.18298228
9.8800316 -43.613365 76.436226
12.016806 -7.3183546 46.061001
15.418433 58.199543 -1.6156316
10.507694 -16.806227 68.19693
11.323733 -5.9574299 56.628967
10.887713 27.967213 63.255707
13.276684 -11.158433 29.497541
11.20653 -3.3595915 59.160912
10.691462 -4.8151159 66.565437
11.51439 2.4448507 55.083698
11.086372 4.9170632 61.598595
11.388437 2.4271231 57.161579
11.097403 9.1905088 61.459755
11.037769 -0.10017876 62.67239
14.578316 -17.518379 12.176399
10.925634 -1.9196014 64.650124
14.709137 63.281273 10.613781
13.979888 59.31963 21.258986
11.311813 13.56685 59.462978
9.9653454 -42.857841 78.771423
11.39698 -5.7343049 58.353989
11.263765 1.5723684 60.271965
15.001205 63.131874 6.8312206
15.270744 -22.182814 3.1200044
11.256092 -25.661556 60.636852
14.820359 59.991909 9.7844391
14.765866 -18.662102 10.580928
15.590475 61.214756 -1.1412778
14.957121 -30.424932 7.9834914
11.662691 14.008736 55.106068
13.794714 -13.216925 24.704157
15.29067 54.993977 3.3310618
14.565409 -16.360352 14.125687
12.823684 37.734936 39.108059
10.77503 -11.297771 68.509819
14.227918 -15.187869 19.333355
15.747154 54.672867 -2.3683546
15.269721 62.768101 4.5753536
11.453793 49.230793 59.502663
11.601131 29.867977 57.447193
15.765264 56.727673 -2.0639408
14.49721 -15.716455 16.108774
15.438957 -30.132139 2.7630186
11.333838 -4.0362 61.510498
11.581713 6.6332769 57.965736
11.844114 -7.7082863 54.251938
15.483957 -27.774012 2.2097943
11.813607 10.851241 54.989258
15.692429 61.505341 -0.43461508
11.421763 47.540989 60.648788
15.489834 62.34803 2.4827604
11.818306 7.0536394 54.99231
13.855854 48.671146 25.881247
13.567292 45.425682 30.124002
14.300038 60.429268 19.745594
11.602834 50.217068 58.482269
15.638675 61.950123 0.96671087
14.938412 62.407406 14.167516
11.03711 -11.397552 66.869232
11.605778 10.505099 58.772751
11.338886 30.335913 62.67263
14.388736 -21.377487 19.512182
12.41572 -22.479759 47.741947
14.471473 61.385876 18.389194
14.163593 51.885006 22.833645
12.953477 46.700977 40.212227
11.383533 41.262848 62.83551
15.609048 54.292633 2.6343193
13.962263 53.041969 26.215986
11.241854 -8.0379229 65.182716
15.169735 -27.848475 9.0816355
15.188307 -19.970257 8.8217869
14.423996 54.693741 20.231773
15.388024 59.506203 6.1305513
15.567582 56.932461 3.6502123
12.707151 -19.381329 44.675266
12.831374 -18.413296 42.901657
11.419935 -5.5981274 63.384365
11.982235 29.994312 55.345978
15.637103 -21.890413 3.8154814
12.993991 -17.933222 41.04203
14.234702 55.896492 23.449562
12.165903 30.098736 53.096424
15.148777 62.851425 10.572657
13.780026 49.060654 30.290054
11.647263 -6.4930091 60.800034
12.398719 -23.813057 50.065174
14.970391 59.293312 13.305744
12.408187 31.282665 50.044453
16.037653 53.573299 -1.8593097
11.727383 30.057018 60.154568
14.740062 57.150612 17.236113
15.451564 -31.892115 7.1858726
15.448584 -20.776583 7.3689756
15.682365 58.803871 4.4814243
15.770965 -25.153034 2.817502
13.584496 -17.105829 34.473949
12.236136 52.145153 54.366634
15.57722 -21.301113 5.9801664
12.698977 32.933842 47.385464
11.963458 -25.024862 58.124638
11.461586 -17.576359 65.371994
11.947823 48.470268 58.550354
15.79893 -31.597586 3.5128067
11.656256 -21.916134 62.794529
15.340773 -25.303747 10.375854
13.607015 46.492268 35.389088
11.750484 34.545643 62.232574
15.402388 60.354805 10.06097
12.112888 -7.9624338 57.207657
16.33359 57.137207 -1.6038393
12.351841 -24.80965 53.919487
16.21937 52.929268 -1.2525808
13.087144 35.095451 43.551834
15.972786 -27.149153 2.487354
13.168362 -8.4417582 42.599655
11.855605 -8.1783152 62.236481
14.889001 59.222351 19.928507
15.754179 -32.439407 6.0579691
13.392859 -8.2150097 40.021416
16.19379 52.932777 0.18984349
15.047967 -22.380472 16.621754
12.87786 -20.922222 47.714523
11.907183 -13.792087 64.38166
13.025959 -8.9559908 45.705528
16.32081 59.20248 -1.3470887
15.91426 -32.355808 4.4740191
13.134375 48.852798 44.245434
15.19069 -23.099695 14.867419
14.199717 -17.757549 29.284164
15.296191 59.856133 13.64541
16.095095 57.627121 3.1261172
11.997978 -11.094012 63.307049
15.378053 -23.600983 12.792982
16.264578 -24.002317 2.8762336
16.245722 -31.45002 7.4035978
12.058687 42.82605 60.573235
13.473927 45.343426 40.424671
16.117645 -29.634945 2.6320364
12.111423 -8.4564371 59.958096
14.513484 50.315578 26.131718
13.846422 42.867996 35.681183
12.582387 49.185909 54.966248
15.069529 60.502838 18.264502
16.002743 -26.711487 8.8294334
12.819894 52.365208 50.693813
15.633995 62.046085 10.467488
16.141066 55.361729 3.2375803
12.280641 44.673607 58.478607
13.944711 -10.557204 34.698494
14.266269 46.985973 30.310711
13.018622 51.628872 48.51561
12.209166 33.068302 60.158752
15.421823 61.411774 14.303037
11.977509 -18.234653 63.698071
16.577114 55.103291 -2.0621319
14.698331 -18.364025 24.99781
13.744427 -8.2490091 38.794079
15.706512 -19.056814 11.568772
16.761496 56.125546 -1.2906204
12.248569 -22.079399 60.524185
12.434347 32.47982 57.930531
14.863273 53.363461 23.216764
15.503909 -17.731867 14.086777
15.77223 60.921909 10.273985
12.732548 46.072182 54.934589
14.444807 -12.622848 29.383121
16.095224 62.124649 6.6880322
16.437199 -26.153992 3.2576022
15.420916 -17.115799 16.010487
15.198011 -16.430334 19.254044
16.084299 60.017487 6.6956973
12.998657 -8.7248373 50.885513
16.508451 56.868118 2.4412031
16.7146 57.124958 -1.860744
14.884892 -14.424364 24.546175
14.123947 44.683002 35.799461
12.933315 44.073334 54.781166
16.456276 54.745861 2.5674543
13.546331 45.449116 44.45113
15.182605 55.690392 21.051329
12.43421 36.033897 60.372387
13.053815 46.734104 51.827011
14.05161 -8.9706898 37.595161
12.519274 -10.469136 59.702129
15.336385 -20.23494 19.425602
13.051239 44.524456 52.111855
13.27242 46.457886 48.961746
12.874485 42.068352 57.42366
13.145164 49.346783 51.334927
14.001923 -16.450569 39.158684
12.653914 -22.37562 58.57658
16.526836 -23.021214 3.1940789
16.901115 54.208046 -1.6236309
13.380072 48.817635 48.835716
14.36806 -15.485599 34.758434
13.274162 -21.518616 50.503677
16.576372 -31.119736 3.4160595
12.927905 32.558025 55.724892
12.850099 -10.169368 56.945126
13.404316 44.534569 49.033745
16.721991 58.304886 4.1437325
14.400247 -13.102384 34.910271
16.642231 -28.947374 2.9072089
12.769061 34.06258 58.3176
14.052755 41.162262 40.096115
16.797911 56.111336 1.5493804
13.991131 -16.474085 41.378773
16.533836 59.457867 5.0550537
16.339138 -29.265676 7.9383459
14.078951 43.140991 40.266239
15.526192 57.158596 19.584084
13.114666 -9.5930872 54.074768
14.829101 -16.260582 29.661875
13.104802 -22.237871 54.478203
16.435993 61.489655 7.1051507
12.620457 -18.89333 61.704258
14.879571 -14.506896 29.621058
13.2033 32.814045 53.597141
16.469902 60.612041 7.0044284
17.028387 59.62751 -0.71996802
14.078833 -11.101249 41.596848
12.788837 -13.581 60.061813
12.695582 -16.322525 61.402588
16.827204 61.042118 3.1302969
15.639837 -18.393539 19.402456
17.081827 53.493874 -1.1659385
13.926776 36.923557 44.005047
13.9838 -16.418325 43.274101
17.044264 55.555923 0.36035377
16.302305 -24.103714 10.474875
17.030478 53.510082 0.078754261
13.972605 -11.045005 43.815529
17.108698 55.488995 -0.63885397
13.492321 33.765301 50.900372
15.913143 -21.351519 16.470245
15.81159 58.665737 17.998493
16.648764 -32.089031 6.1596737
16.656805 -28.082621 7.3073416
16.190098 -22.16943 12.876585
13.921177 -17.127729 45.336559
13.998685 39.415794 44.27692
13.846252 -11.550126 46.463959
16.072504 -21.845959 14.645747
16.475739 -21.045645 8.8921223
16.784939 -31.974571 4.4746151
16.918987 -27.335602 3.5839045
14.299827 -11.358269 40.195438
15.378208 -16.325697 25.056316
13.061031 -19.887867 58.58913
13.877451 -14.946973 47.038479
14.084255 41.821102 44.144142
16.549454 -25.925646 8.9948139
16.29546 -20.487207 12.645727
14.439848 -14.751253 39.357086
17.368496 56.230618 -1.6525011
13.874526 -17.82847 47.696781
17.084435 56.199711 2.7722502
14.207635 -14.544102 43.461021
13.216463 -12.950358 57.302448
13.181146 -17.029308 57.953186
13.140164 36.932545 58.46384
13.426023 42.008343 54.393051
13.594875 42.90287 51.978352
16.139256 -19.549543 15.872028
14.364666 -14.383802 41.186321
17.256477 59.904919 -0.0079626292
13.897586 35.139381 48.033573
17.379519 57.293919 -1.7288138
14.541664 -11.962853 38.941841
17.243292 60.18829 0.87093526
13.746704 -10.684253 50.744667
17.102966 -25.401798 2.9356773
17.040665 -22.7715 3.8868372
13.540172 -19.792355 54.571259
13.452919 35.183022 55.969604
17.115494 -30.313538 3.6194897
13.590282 -12.054164 54.141365
17.018917 59.970936 5.1941457
17.545063 59.873486 3.3076334
13.978429 40.335808 49.181202
16.902094 -21.882036 7.482686
13.910704 -18.766806 50.545414
17.23888 -28.197515 3.9725397
16.950512 -30.699297 7.1644382
14.035511 37.838158 48.850895
17.168789 58.44949 4.0601473
13.670071 38.447693 55.191891
17.077427 -22.110865 9.5142689
17.199503 -22.566164 4.6946073
17.155493 -22.303862 5.9832973
16.796957 -22.701698 10.765261
17.108265 -29.146326 6.4366341
14.067717 -13.198625 50.477596
13.997092 36.978912 51.57069
16.95649 -25.424107 9.3267574
17.31321 -28.762978 4.4488459
13.830614 -17.328846 54.235294
14.00844 39.577435 51.769684
14.111218 -15.828946 50.499111
13.873384 -14.444471 54.109653
17.286142 -29.365309 5.497035
17.424864 56.993225 3.5719647
17.631363 55.125072 0.64758998
17.366676 -31.137602 4.5717859
17.284229 -31.276648 6.0834537
17.309212 -28.817156 6.4114428
17.868216 57.451344 -1.3060272
17.598715 -24.938629 2.9594407
17.555853 59.183002 3.8591256
17.471416 -28.956532 5.465168
18.036402 56.264988 -1.3476219
17.314749 -27.713184 7.9822826
17.908209 55.081223 -0.41718811
17.244555 -24.761461 9.350193
17.715467 -26.753149 3.3383591
18.022297 57.799328 -0.68967026
17.77865 56.358936 2.9594789
17.472879 -23.778318 9.1886845
17.88319 57.426846 3.5402863
18.248215 58.509113 1.1316592
17.932989 -24.508535 3.3528037
18.252386 58.117012 0.15857823
18.046011 -27.779587 3.8825684
18.322248 57.82552 2.7294676
18.635054 56.685772 -0.58517426
17.875143 -23.379829 7.6650248
17.830729 -27.155525 8.3632412
18.345108 55.340042 1.0632137
18.229996 -26.325588 3.3674006
18.236097 -24.174072 3.9954793
18.029865 -28.77626 6.9877424
18.550379 55.318218 -0.1176459
18.226307 -28.472233 4.6114407
18.37402 56.863335 3.0581336
18.279184 -28.928663 5.8622456
18.385569 -23.862318 5.9981976
18.424004 -24.009272 4.807632
18.661545 -25.926933 3.9507294
18.197199 -26.364861 8.3736296
18.725712 -25.708982 7.07409
18.563047 -27.232655 3.9144442
18.778629 56.842991 1.3160211
18.878433 56.707695 0.25287038
18.985231 55.809143 0.27383381
18.933016 55.851402 1.3703583
18.61624 -28.140263 7.3024626
18.809288 -27.875195 4.7338572
18.930859 -25.735697 4.9908032
18.900467 -28.271696 6.0863018
19.026178 -27.060472 4.978106
18.95557 -25.784157 5.9978633
18.901802 -27.21628 7.3573875
19.13936 -27.33742 6.2538786
-17.05142 -26.867641 9.0927696
-16.738571 -26.671522 10.166302
-17.026539 -26.679937 7.7961221
-16.852558 -25.380369 9.0845861
-16.824306 -27.812172 8.974246
-16.931326 -25.357927 7.7104936
-16.826647 -27.510632 7.5945492
-16.45697 -27.598312 10.155966
-16.683399 -26.83634 6.7114778
-16.731798 -25.4566 6.7097731
-17.929262 55.673302 -1.5155822
-18.057058 55.554588 -2.6002259
-17.880014 56.745975 -2.8678579
-17.788654 56.659447 -1.6489483
-16.036133 -24.476751 10.604599
-16.340706 -23.499052 8.5284119
-15.965942 -25.754951 11.070276
-16.439196 -23.65048 7.3738165
-16.219471 -28.485664 8.7540054
-17.6654 56.096725 -3.6815917
-17.758894 56.530647 -3.4565229
-16.25325 -28.117044 7.4739552
-15.893358 -28.257061 9.8464651
-17.200012 56.890713 0.1718096
-17.065454 58.108818 -0.032156542
-16.215435 -24.046766 6.20962
-17.645689 55.039738 -2.986305
-16.343689 -26.061573 6.0874872
-15.600715 -26.54603 11.08949
-15.135073 -22.066473 11.136936
-17.359158 55.144676 -1.8270255
-16.123943 -27.477304 6.6882219
-17.274952 58.317692 -1.9572083
-17.223848 55.884781 -4.2985802
-15.18854 -23.121317 11.652554
-15.832139 -26.492239 6.0527883
-16.672352 56.295803 -0.049934939
-15.111889 -27.130875 10.713472
-14.949151 -24.091955 11.865655
-15.441055 -28.544411 8.3052187
-17.023493 54.785599 -3.3129432
-15.382602 -28.371202 7.2812266
-15.742751 -24.708843 5.5420394
-15.187112 -28.328384 9.2741108
-16.415066 59.176674 0.63469785
-15.210507 -30.817089 9.0683308
-15.397054 -30.782452 7.5599232
-17.068306 57.088287 -4.3639965
-15.253754 -28.950821 8.3524914
-15.278963 -27.958464 6.7436743
-16.321171 60.044498 0.4686293
-16.673834 54.904781 -2.2757092
-16.283075 56.972881 0.49103206
-8.5358887 -10.753637 55.46999
-14.663085 -24.755898 11.868406
-15.003508 -28.553658 9.2858315
-9.006237 -12.377003 51.988914
-9.360076 42.970058 49.419487
-8.4585991 -13.621753 55.791424
-9.3374434 40.364075 49.400181
-15.075937 -21.874176 8.4383717
-8.9823189 -9.754858 51.783306
-16.569403 55.88644 -4.6712017
-8.9569626 42.325531 51.899063
-14.4062 -21.941214 13.10058
-15.165495 -22.381748 6.4526787
-14.803379 -30.167791 10.081215
-14.358505 -20.61478 12.975766
-8.8565159 39.639206 51.967102
-15.212502 -30.02729 6.537847
-8.5635796 41.740486 53.834454
-16.007877 58.460815 0.85834926
-9.5729103 41.03178 46.636883
-8.7834911 -15.303811 52.222984
-14.493979 -20.999704 10.336934
-9.5172882 43.546604 46.78907
-15.794327 60.058201 1.8712643
-14.978945 -26.839058 6.1921363
-8.2733307 -8.3668156 55.317673
-8.1234579 -16.055824 56.275574
-8.4564466 38.842556 53.901196
-16.411255 59.846085 -2.3642783
-15.249526 -25.174664 5.5163589
-16.035364 56.027073 -0.39348799
-16.276001 55.225574 -3.6012745
-8.6626244 -7.2284904 51.853603
-16.60873 56.904202 -4.8080201
-9.4658642 38.283371 46.000305
-16.391882 59.629196 -3.2844675
-7.5944934 -11.470181 59.22332
-13.597941 -18.960396 16.451746
-13.336699 -18.323702 18.271784
-8.6206818 45.580429 51.821518
-8.9654255 46.303925 49.36853
-8.003561 40.801659 56.203217
-14.279694 -25.280781 11.544779
-9.7008829 -11.329592 44.118233
-7.6760201 -9.0409164 58.498577
-15.868558 56.811863 0.17115824
-9.8904934 -11.553699 42.634003
-8.9503365 -14.556763 49.319977
-10.220312 -9.2906361 40.24411
-14.822928 -31.626606 7.4811487
-9.3883247 -11.483336 46.126652
-16.076303 55.283005 -2.6236508
-14.570881 -31.624983 9.1567278
-13.777357 -19.604248 14.784252
-9.9869385 44.677254 41.681206
-7.3643141 -15.871955 60.247288
-10.088629 -12.04409 40.84338
-9.012043 -11.726362 48.467045
-15.734175 61.02951 -0.2541905
-15.683593 58.231632 0.87991852
-13.211557 -20.351095 18.298258
-13.655493 -21.26685 15.123242
-12.009359 -14.598955 26.784348
-10.185259 45.445744 38.790409
-9.3641434 -13.460697 44.811535
-13.68854 59.653069 14.619359
-13.931931 -23.362095 12.87463
-9.0349369 -8.3769865 47.658905
-8.8491468 37.114098 48.919785
-9.8939219 -8.6024122 41.433384
-8.1573238 45.564182 53.748241
-16.098236 53.257065 -2.7722468
-15.852142 56.082657 -1.2408229
-9.7919531 39.782726 41.870075
-16.235708 53.154034 -4.0062017
-6.8391576 -12.11702 62.775394
-7.0518732 -9.4759264 61.258255
-16.015379 55.696777 -4.2548904
-9.3345337 -8.0489702 44.995457
-12.658851 -17.051468 21.31872
-16.210987 59.304024 -3.9898255
-13.48549 -26.842415 11.40727
-15.127316 60.826385 3.5901189
-8.364399 36.354229 51.648994
-6.7183261 -14.660516 63.247879
-15.094921 61.709034 3.6273451
-9.5835924 -8.2531376 42.796505
-14.790144 -28.715563 5.7018218
-7.674315 -18.500204 56.320637
-14.688169 -30.847942 6.3541198
-14.083183 -30.897911 10.335876
-11.198386 -12.471195 31.167248
-13.279142 58.261318 16.281425
-7.8264127 -5.9147654 55.049423
-15.315215 59.539062 1.7343825
-15.751952 55.841957 -1.4536387
-11.144211 -14.218112 31.325674
-9.5023193 -13.627183 42.944393
-10.230125 43.738483 37.696087
-7.6157584 37.930313 56.23
-8.9955864 47.727669 46.312138
-7.362237 -6.2902651 57.926128
-7.9394889 36.248234 53.764874
-8.1337185 -18.050549 52.326813
-9.0266304 51.986645 45.817497
-16.094244 53.835495 -4.523634
-10.356432 -10.706606 36.300858
-14.77383 62.337059 3.1805029
-8.115942 47.690208 52.071785
-14.658234 -22.78438 5.5690913
-10.333577 -13.094688 36.312592
-6.935081 -18.352905 60.377735
-13.839043 -26.190615 11.23123
-8.6239471 52.689556 48.251625
-9.6647072 -13.754883 40.733421
-7.5068831 45.930706 56.002346
-13.587921 -18.98093 12.724897
-12.353647 -18.888174 21.448286
-8.8876829 49.641933 46.098412
-8.4295034 47.933495 49.351341
-6.6807694 -6.1329699 61.276737
-8.4732981 50.117928 48.915421
-7.1582313 40.041443 58.11525
-9.4642467 48.320412 41.698471
-12.820294 56.900467 17.818962
-15.364782 54.66581 -0.42109972
-10.63349 46.951313 33.181999
-6.065906 -6.6319036 64.201645
-5.9742274 -9.78619 65.273888
-9.8257217 -6.4006739 38.662998
-15.952967 56.729713 -4.9741344
-7.939116 49.80154 51.914177
-15.322207 56.793449 -0.52987534
-14.355628 -24.115667 5.3027368
-13.992565 -24.984987 5.3228831
-11.553408 -12.739601 26.1112
-14.758223 60.213673 3.296977
-7.9223146 -5.2630558 51.806938
-12.759692 -16.2026 17.289999
-12.229379 -15.10509 21.004665
-14.207304 61.366409 6.7736406
-12.328737 54.731438 20.112305
-7.2933707 36.326103 55.930733
-6.3983736 -17.919569 62.267365
-7.7037673 52.763832 52.277061
-13.108224 -17.744251 14.257
-10.781917 -10.609959 30.770023
-11.334164 -16.639357 26.820461
-15.810172 54.699623 -5.0445085
-5.7112985 -13.504741 65.763374
-13.582825 62.137154 10.72484
-6.9196782 37.069305 58.091759
-8.7156792 54.770515 45.279488
-11.17884 48.866043 27.5707
-14.28534 -29.422823 5.4394927
-14.996799 57.634991 -0.066461638
-7.2203755 48.529076 55.623093
-15.009705 55.328339 0.18118326
-14.066988 62.501987 6.8788986
-8.3733826 55.657593 47.382385
-9.4369812 -5.5993094 39.785027
-12.947574 61.507812 14.705276
-10.347336 45.13385 33.17028
-11.747967 51.895531 23.19924
-13.954214 -32.010715 7.4470882
-6.433043 -4.367939 60.753902
-12.850418 -22.70425 15.083292
-9.6705036 47.935143 37.693748
-6.8355269 46.832851 57.819664
-9.917881 -8.1841125 35.882553
-12.537643 60.031219 16.875994
-13.685236 -31.985319 9.0182362
-15.495682 56.793606 -4.763133
-14.729612 59.117619 1.4319109
-12.5209 -22.061634 17.100283
-13.488051 60.540154 10.169073
-10.541657 -15.740237 31.010159
-12.257945 -21.223471 18.786654
-9.1006269 51.703491 41.229851
-7.9401097 -17.642347 49.481613
-15.544657 58.839828 -4.6340117
-15.25039 52.692966 -2.6803083
-14.152023 -26.953548 5.1134195
-8.277627 -5.8411589 46.667614
-5.8168235 -3.037879 63.384262
-13.90569 -31.321232 6.4300222
-8.9680014 37.931622 41.486614
-15.376004 52.588974 -4.1137161
-6.9417005 -21.100451 55.889404
-6.6300502 -4.0671654 57.984047
-12.978911 -24.570137 12.793032
-13.847651 60.787663 6.5749717
-6.3326068 38.689587 60.021427
-9.0038967 -5.4825349 40.980446
-10.16398 48.730125 32.612495
-13.209678 62.857685 10.89238
-8.6177874 -5.5362039 43.548847
-13.296026 -31.308796 10.150503
-7.579258 55.660767 50.866833
-5.6763396 -17.473499 64.474815
-6.9202571 52.323101 55.408958
-6.2520075 -21.023613 60.062485
-8.2937794 36.043938 45.42387
-13.532482 -20.937361 8.0747032
-13.77353 -21.660757 6.0146909
-9.5706463 -14.734051 36.087746
-13.295966 -20.261147 9.494482
-14.49441 58.671783 0.96208423
-12.657763 58.093796 13.89039
-6.4102378 34.06741 58.261929
-7.2777777 -20.367548 51.987747
-7.8030934 34.583229 48.163708
-15.243103 53.190098 -4.7747021
-13.181168 59.956654 9.8471489
-5.9306235 -2.3485317 61.423786
-10.715466 50.936596 27.372839
-13.583483 63.315048 6.8939991
-7.338048 33.615738 51.265747
-12.321843 56.760109 15.7848
-11.710145 57.277561 20.125048
-12.896181 -27.198973 11.66943
-8.5289125 -15.109106 42.641415
-6.9976559 33.669003 53.498772
-7.9890714 -16.309252 46.338142
-8.2383022 -15.462976 44.514492
-14.424338 56.92675 0.44322819
-14.098029 59.667694 2.7212124
-12.034383 55.499897 17.394041
-12.936701 -19.357483 10.866651
-5.206924 -3.5824804 65.863274
-11.218721 54.623821 23.056225
-14.510596 54.222458 -0.38249356
-5.9898152 45.434174 60.131752
-7.4697294 -19.194378 49.584377
-11.401752 -20.026014 21.548395
-9.1792622 49.277138 37.352161
-11.643022 53.233334 19.784243
-12.350906 62.400288 14.726545
-14.973542 57.964874 -4.7580853
-5.8506026 34.522736 60.721367
-13.599024 -29.912621 5.5575981
-6.194941 14.467554 58.228886
-4.8530917 -6.8155699 67.759392
-14.869928 61.371197 -3.5501742
-13.68326 -27.59828 4.8468599
-12.821162 63.322662 10.970942
-14.420565 62.407364 -0.53732878
-6.5985608 54.06884 55.188656
-12.076546 61.541233 16.130486
-10.479393 47.299957 27.443798
-11.093378 50.240875 23.01759
-6.6358695 10.760399 54.720032
-6.2407012 51.544662 57.524616
-6.668263 14.548561 54.454334
-4.7223239 -12.442515 68.138023
-5.592504 0.15332596 61.939182
-6.1894674 10.549123 57.691566
-6.56633 -4.017417 55.007893
-15.016212 56.323868 -5.2152853
-6.4704022 33.691044 55.571896
-11.747211 -14.613319 17.776852
-14.999331 54.252979 -5.3775506
-4.4786401 -6.6005936 69.366798
-9.0392942 40.256733 36.863605
-11.25668 -13.864243 20.930887
-14.151443 54.972126 0.24016564
-11.951632 -15.392488 15.852388
-6.5402622 17.707228 54.341915
-14.821366 60.865082 -4.6192689
-13.282828 60.409241 6.2841611
-13.410652 -21.958443 5.3509374
-5.3456407 29.675648 60.564526
-5.3657317 -21.480021 62.557587
-12.100871 -16.82548 13.801907
-13.698721 63.335175 3.1409879
-5.663074 5.6625719 60.313988
-5.8578897 -1.761079 58.920624
-5.6514192 9.8483105 60.384712
-2.652209 -37.365776 81.702194
-13.263394 -25.622128 4.8998232
-5.8836083 17.571306 58.683731
-11.641256 60.541168 17.690798
-10.455425 -11.528752 26.109732
-13.146142 63.748844 6.8744755
-13.46485 -23.096605 4.9006643
-4.9879518 2.485415 64.888519
-12.741886 -31.283712 8.2883072
-5.2547631 4.1622362 62.802525
-12.885089 -31.209093 7.1731782
-5.4885278 13.345619 60.958138
-6.0115571 6.2981968 57.168324
-12.691896 -30.937073 9.3756409
-5.3967519 9.1618147 61.495468
-6.2817144 6.1706762 55.108105
-4.5932841 -0.26862627 66.978195
-5.6350899 0.66516155 59.545963
-13.364983 58.001293 1.4238952
-5.3370681 32.202576 61.433693
-5.9023867 -2.103549 57.215084
-12.813556 -30.729511 6.5538979
-4.171001 -12.180286 69.434662
-9.6094589 -9.1461649 30.702099
-2.7218769 -38.28154 79.42453
-14.264044 52.499519 -2.742486
-13.780379 56.625248 0.6170668
-4.0299602 -17.235577 68.199104
-9.5349417 -17.332933 30.725765
-5.1824317 16.483353 61.659546
-5.8288765 0.48275083 57.021767
-7.2567272 -4.1845298 46.838367
-10.027719 -18.03697 27.077194
-6.7257872 13.740381 50.53788
-13.114025 -28.159922 4.9898067
-6.0530772 -2.5378904 55.201599
-6.6461039 10.033871 50.959003
-12.510365 -30.948313 9.3290548
-10.775833 59.104534 19.902563
-13.39581 58.862171 2.699543
-14.344301 52.389133 -4.0881267
-4.792398 7.5504084 63.749298
-3.8256443 -5.9042187 70.614456
-12.121706 -27.604937 11.561206
-12.891974 -24.302145 4.787519
-4.9458823 12.459104 62.45961
-8.0524912 55.358128 40.319736
-12.772493 -29.49346 5.8397689
-10.408716 56.358891 22.594954
-4.6783919 -21.636423 64.143745
-4.9426026 30.277941 62.228584
-10.478803 49.5462 22.801992
-6.0626464 20.68976 54.203014
-11.497346 56.315205 15.501502
-11.727373 57.284924 13.858315
-7.4636602 57.701214 44.1768
-11.266086 55.277618 17.037075
-5.4713979 30.97188 58.184349
-7.0924439 58.398716 46.59898
-5.8935189 0.42129177 55.098885
-8.6494751 -6.3284764 35.477745
-3.9693182 -3.3902502 68.72274
-10.861843 52.775841 19.671265
-5.9754634 -24.203442 54.369957
-14.2465 52.770519 -4.6970716
-8.458046 52.958321 36.400097
-14.354446 55.888638 -5.6297016
-9.7676525 52.804558 26.979013
-5.4740334 -25.233 57.473656
-5.313581 20.215498 58.51461
-4.2815127 5.7289386 65.899231
-6.2820797 -22.842073 51.6465
-7.8346453 56.285046 40.429848
-7.3645735 -16.378323 43.766682
-3.5745132 -12.119903 70.617058
-6.4626985 58.697636 50.147934
-6.2446384 5.5652294 51.67292
-14.233811 60.380142 -5.2549067
-13.582986 54.074722 -0.63984829
-12.146224 59.071968 9.5494757
-6.5427561 -21.572823 49.365601
-12.578933 -22.49453 4.827589
-8.2059708 -4.5180802 37.442116
-12.608759 59.656956 6.0866342
-6.3841658 16.744177 50.272003
-6.9824934 -18.513357 45.846546
-3.8723829 3.1485357 67.939484
-12.556748 -29.713612 5.865427
-4.5001569 15.370079 63.320324
-11.575314 -25.20092 12.917611
-8.8737764 51.570877 31.974066
-1.6220118 -38.255611 83.548622
-11.771424 -27.628061 11.308086
-8.787014 42.511959 32.530338
-4.7732158 51.508095 60.875866
-14.067435 53.907818 -5.3155618
-5.2254891 55.324959 57.593113
-12.317103 -25.596865 4.7660956
-3.6545532 -21.746054 66.37532
-5.9741158 -3.3072748 52.047199
-4.5644841 19.036238 62.05138
-7.846817 -3.8390326 38.686306
-11.211071 64.334045 14.708886
-8.2709751 -16.226645 35.615101
-9.4739819 46.052242 27.053118
-13.280024 54.799503 -0.084332541
-5.5778756 57.54509 54.709236
-11.875319 -31.477566 9.8646851
-10.854785 63.647869 17.086637
-10.704041 63.123081 18.103186
-6.4632878 9.2114944 48.249683
-10.964588 64.028503 16.137207
-11.667809 64.264664 11.071741
-10.802485 -22.531563 17.197229
-4.1245494 10.363167 64.708168
-11.089783 -23.429272 15.132877
-3.0459182 -7.5370102 72.344955
-10.549248 -21.428562 18.830252
