# .PCD v0.7 - Point Cloud Data file format
VERSION 0.7
FIELDS x y z
SIZE 4 4 4
TYPE F F F
COUNT 1 1 1
WIDTH 1397
HEIGHT 1
VIEWPOINT 0 0 0 1 0 0 0
POINTS 1397
DATA ascii
-0.058087103 0.619546 0.22533099
-0.0580725 0.54781604 0.57012099
-0.057006076 0.5478943 0.099012844
-0.057772502 -0.49777499 0.91227204
-0.056974396 -0.23023668 0.10973014
-0.0576149 -0.24517401 0.085558951
-0.0576116 0.59215099 0.1788892
-0.057590507 -0.156119 0.36317301
-0.057560399 -0.50541699 0.90589601
-0.057506703 -0.419346 0.75512493
-0.05362419 -0.5442723 0.977763
-0.057377502 0.081876606 0.49264997
-0.056615986 -0.25996152 0.084819272
-0.0572678 0.58923197 0.29988003
-0.057202801 -0.18213499 0.35545796
-0.057153299 -0.30862901 0.1125881
-0.056960501 0.187471 0.55525398
-0.056882493 0.57141703 0.29292101
-0.056821503 -0.381861 0.58153701
-0.056797199 -0.51053298 0.87096798
-0.056745999 -0.51046395 0.84930801
-0.0567386 0.57988602 0.31779498
-0.056660607 -0.51520002 0.929317
-0.056618504 -0.23970501 0.1471419
-0.0564363 0.455798 0.771474
-0.054645017 0.54781687 0.097991601
-0.056199796 -0.261861 0.14339361
-0.056155905 -0.36360699 0.54243803
-0.056087598 0.56972003 0.33477402
-0.055892497 0.59634703 0.25931001
-0.0558175 -0.29336101 0.083329648
-0.055758402 -0.48218602 0.93768996
-0.051293723 -0.56048596 1.0092868
-0.05390846 0.54144174 0.32060462
-0.055521898 -0.54443902 1.005182
-0.0554865 -0.18994899 0.39833802
-0.055395097 -0.37056598 0.65786898
-0.055280507 -0.42742199 0.74743104
-0.054413527 -0.11134341 0.45671362
-0.055165902 0.543639 0.1159468
-0.055148803 -0.49676299 0.77319294
-0.054157935 -0.29977602 0.12303917
-0.054944895 -0.30639699 0.098279402
-0.054897703 -0.343539 0.52515203
-0.053050213 0.62338889 0.17429924
-0.054783002 0.218512 0.56459802
-0.054690398 0.603697 0.21926899
-0.054574102 -0.314383 0.5043
-0.054395303 0.54815 0.610367
-0.054202698 -0.50842303 0.78334194
-0.054198399 -0.30171698 0.089308806
-0.053688206 0.558038 0.090384997
-0.0536419 -0.403494 0.73224294
-0.053505294 0.56376302 0.31241798
-0.053407803 -0.511774 0.89058
-0.053353004 -0.243442 0.13020509
-0.053229801 -0.55554998 1.0124071
-0.052970044 -0.28828973 0.086003087
-0.052677155 -0.30297905 0.11573847
-0.052976303 -0.24550501 0.094541103
-0.050434284 -0.51506025 0.93333077
-0.048984498 -0.55610126 1.0055639
-0.052864 0.57569599 0.1512816
-0.052793302 -0.386608 0.59490502
-0.052710399 0.59064901 0.16288599
-0.052651905 -0.43816102 0.79142302
-0.052556805 -0.373914 0.67584497
-0.052449502 0.607674 0.185156
-0.052377194 -0.092133798 0.49917901
-0.052278794 0.54374099 0.10424
-0.051128447 -0.27128708 0.12227692
-0.0518521 -0.43059701 0.78860098
-0.051849604 -0.389337 0.71440798
-0.0517838 0.61020499 0.096403003
-0.0517058 0.57359499 0.093352601
-0.051571704 -0.36476001 0.84362096
-0.0514936 -0.48567799 0.76294196
-0.050822593 -0.2451594 0.10959406
-0.051464394 -0.51793098 0.79389
-0.051018275 -0.26727235 0.092322744
-0.050805427 -0.29874754 0.093646027
-0.051301003 -0.379976 0.69560796
-0.051090702 -0.088335894 0.502648
-0.050779201 -0.50932097 0.91498899
-0.050663941 0.28009367 0.55128449
-0.050635301 0.54185903 0.65980995
-0.050589003 0.55924499 0.1425107
-0.050569497 0.50313497 0.74193996
-0.0504646 0.55307299 0.32966799
-0.050428204 -0.17475 0.40504801
-0.050289094 -0.21778299 0.83231694
-0.050254896 -0.52720201 0.95717299
-0.050254896 0.55279499 0.13543449
-0.050213501 0.24666901 0.566495
-0.04924389 0.62112552 0.14482969
-0.050036401 -0.14911 0.414123
-0.049082391 -0.28578454 0.10596476
-0.049013823 -0.28162625 0.098563477
-0.049722008 -0.082139499 0.50350702
-0.049525902 -0.51409799 0.92141896
-0.049506299 -0.448549 0.77629501
-0.048771493 -0.26450509 0.10729454
-0.049294204 0.60810798 0.1667923
-0.049267396 0.54101801 0.37310302
-0.049265005 -0.0910962 0.81334394
-0.048969902 -0.12748399 0.819718
-0.048813805 0.116329 0.78488296
-0.048709005 -0.5424 0.97859699
-0.047072947 -0.5551433 0.99861854
-0.048508994 0.58332402 0.1503038
-0.048492007 0.61368698 0.10530069
-0.048489504 0.53282702 0.70587397
-0.048479795 -0.17479201 0.82627499
-0.048243202 -0.41413501 0.82218802
-0.048218898 -0.44119203 0.77230102
-0.048165195 0.54412401 0.1175244
-0.0480799 0.51817501 0.342179
-0.047436781 0.6172576 0.12076563
-0.047921307 0.60167837 0.096959554
-0.047738507 0.065200403 0.78101999
-0.047633603 -0.390746 0.60802597
-0.047543399 -0.0184587 0.78543097
-0.047536097 0.57570899 0.0955057
-0.045347326 -0.5609194 1.0154055
-0.047431298 -0.26493499 0.84067595
-0.047289804 0.560691 0.0907069
-0.046598457 -0.55040109 1.0152253
-0.046780199 -0.44878301 0.72962898
-0.046762198 -0.052072402 0.49352598
-0.046726599 0.55375099 0.094696097
-0.046524204 -0.52604097 0.95890194
-0.046375401 0.54308999 0.34637803
-0.046343699 0.52692598 0.40775299
-0.043742217 0.60720891 0.13886142
-0.045860186 0.54543459 0.10552397
-0.046117 -0.429151 0.82971996
-0.045934096 -0.56241202 1.0127391
-0.045875601 0.122371 0.501975
-0.045473993 -0.54588395 0.99100929
-0.045719497 -0.457046 0.767519
-0.0457073 -0.468541 0.91038197
-0.045680508 -0.45344502 0.89511096
-0.044007719 -0.55906051 1.0094246
-0.045641497 -0.058119301 0.79927397
-0.045451298 -0.52125198 0.83017403
-0.044994801 -0.12955201 0.45867401
-0.044907503 -0.51044703 0.99511701
-0.044512503 -0.44863603 0.76211095
-0.044473499 0.022323599 0.78254205
-0.044469409 -0.19347601 0.42302901
-0.0444564 0.48598 0.36588299
-0.044383295 0.53662103 0.34655398
-0.044151604 -0.40464002 0.86405796
-0.044144295 -0.47438598 0.921004
-0.043447241 0.60220289 0.10658036
-0.043851703 0.52047199 0.45360202
-0.043756597 -0.52924502 0.80595595
-0.043700509 -0.44177699 0.88581997
-0.043671302 0.16586 0.78688496
-0.0435225 -0.47175202 0.91709501
-0.043493301 0.148981 0.51489604
-0.0431545 -0.023659799 0.47983199
-0.043083601 0.55746496 0.1348736
-0.042812899 0.58789098 0.1363464
-0.042598404 0.56547499 0.14131589
-0.042542294 -0.51383203 0.90879995
-0.042166159 0.60596079 0.12295742
-0.042474002 0.53640401 0.53602201
-0.042393506 -0.42939702 0.87771797
-0.041154288 0.5707252 0.10406978
-0.042174101 0.54739398 0.1184461
-0.042098507 0.54448301 0.56801397
-0.042047299 -0.38783699 0.55612701
-0.04102435 0.55703431 0.12324288
-0.041792452 -0.55741698 1.0015053
-0.041757099 0.52441901 0.49658102
-0.037934072 -0.51479846 0.91804177
-0.040441386 0.56149656 0.094265282
-0.041549794 0.21824899 0.54823399
-0.041418202 -0.39369899 0.62888896
-0.041391298 0.43692198 0.40117902
-0.041327894 -0.42989701 0.71183598
-0.041267008 0.18206801 0.529724
-0.041171901 -0.52011603 0.95900398
-0.041076802 0.39476502 0.44113702
-0.04095 0.27905101 0.78819698
-0.040884197 -0.534051 0.85678101
-0.040786602 -0.30520201 0.85697895
-0.040767096 -0.342859 0.519153
-0.040277205 0.58897966 0.12070772
-0.040686704 0.36248502 0.47742999
-0.040459901 0.31446302 0.53077
-0.040452607 0.33086398 0.51237702
-0.040029936 0.55037999 0.107242
-0.039774701 -0.52956402 0.87479597
-0.039654702 -0.107694 0.48681599
-0.039652802 -0.481628 0.97433197
-0.039494999 -0.197777 0.44439799
-0.039329067 0.55961663 0.11198427
-0.0392261 0.24719 0.55075502
-0.0390139 0.52690399 0.37333202
-0.038616501 -0.36478999 0.53337401
-0.038579896 -0.31175199 0.498595
-0.0383702 -0.41723001 0.69402301
-0.038362898 -0.52164197 0.93742698
-0.038333602 -0.52985901 0.882263
-0.037977599 -0.471587 0.75516599
-0.037867896 -0.39888301 0.65074903
-0.0377535 0.0051913499 0.46992499
-0.037716702 -0.34381402 0.87617898
-0.037638701 -0.399634 0.56844598
-0.037411898 -0.54496497 1.0117151
-0.037159704 -0.14713299 0.44869399
-0.037133902 0.54402399 0.61527497
-0.037104703 -0.40742502 0.67286497
-0.036019981 -0.55925548 1.0027909
-0.0368535 -0.46356702 0.749897
-0.036768101 -0.173842 0.43445498
-0.036607198 0.261601 0.78834802
-0.0364905 -0.10690501 0.48887199
-0.036373101 -0.54055899 0.818021
-0.036085404 0.51031798 0.37042099
-0.035973199 -0.51701599 0.923998
-0.035829104 -0.099333197 0.49299401
-0.035678215 -0.56357443 1.0051845
-0.035505101 -0.53985697 0.98162001
-0.034880802 -0.47129199 0.71583498
-0.034762502 -0.268199 0.47502702
-0.034388296 -0.54480702 0.84000802
-0.034271203 -0.52091497 0.93864304
-0.0342566 -0.55419701 0.858944
-0.033068642 -0.54794085 0.98115999
-0.033917703 0.031587001 0.46523303
-0.033678703 0.22167701 0.78882599
-0.033605501 -0.52994704 0.89267498
-0.033439696 -0.55005401 1.0097979
-0.033169098 0.34422198 0.802854
-0.033137396 -0.40776902 0.581545
-0.0325936 -0.383275 0.89160401
-0.032574102 -0.47030601 0.95562202
-0.032427803 0.54062998 0.66712797
-0.032354601 0.408903 0.79697198
-0.032108404 -0.55622798 1.007638
-0.032071404 -0.126371 0.48041499
-0.032023005 -0.34010601 0.51604402
-0.031269602 0.0604528 0.46272397
-0.031224601 -0.173776 0.459804
-0.031152502 0.278056 0.54109901
-0.030784503 -0.073462702 0.47991198
-0.030489303 -0.51575804 0.99931097
-0.030447796 -0.563178 0.84695196
-0.029465102 0.50606298 0.40761799
-0.029262699 -0.45323002 0.698232
-0.029053099 -0.51640898 0.93940198
-0.028923802 0.452779 0.77866995
-0.028731197 -0.31113702 0.49553001
-0.028462999 -0.408344 0.90743893
-0.028409302 0.47197399 0.40633798
-0.028366603 -0.12601401 0.48209101
-0.028275102 -0.14595 0.46900797
-0.028214201 -0.52792799 0.90719801
-0.028085001 -0.173954 0.461945
-0.027984999 -0.56162399 0.86182195
-0.027948797 -0.21523 0.454822
-0.0279046 -0.51060301 0.76810896
-0.027272999 -0.41339901 0.60395598
-0.025328293 -0.55127406 0.98362857
-0.026946299 -0.523193 0.77783799
-0.026431799 0.74301696 0.77618301
-0.02634 -0.27540299 0.47659802
-0.026335903 -0.118244 0.482162
-0.026200101 0.49883097 0.45606202
-0.026117198 -0.54712796 0.87686402
-0.0258075 -0.42983398 0.92415196
-0.025790505 -0.52432901 0.96350503
-0.025305204 -0.45163301 0.93357199
-0.025224701 -0.53679699 0.78649002
-0.025205307 0.792041 0.77306598
-0.024976 -0.559852 0.83034199
-0.0248712 -0.41925597 0.62983501
-0.024861395 -0.438768 0.68017501
-0.024166703 -0.52998209 0.91620296
-0.024685897 -0.55543101 0.87717599
-0.024490297 -0.146459 0.47061199
-0.024478599 0.099864699 0.46448898
-0.024056472 -0.54502845 0.88505161
-0.024290904 0.51194 0.54641497
-0.024222597 0.49673599 0.49570799
-0.0242128 0.69608998 0.77632099
-0.024190895 -0.481516 0.735017
-0.022956014 -0.53239924 0.96285027
-0.023973897 -0.55535001 0.984429
-0.023956798 -0.57336497 0.85371596
-0.023915298 0.74486506 0.73996496
-0.023864105 -0.46486402 0.93693703
-0.023764201 -0.52654803 0.99890095
-0.023654401 -0.42899701 0.65548199
-0.023118004 -0.566908 0.87908596
-0.022915602 -0.0480901 0.46698099
-0.02163969 -0.54577738 0.89656186
-0.022803403 0.25475401 0.52219397
-0.022493701 0.697061 0.74304998
-0.022367001 0.79446197 0.73683196
-0.022310901 0.83617401 0.76894993
-0.0222889 -0.46126997 0.93501502
-0.022262104 -0.538369 0.99377602
-0.022227999 -0.490969 0.74402702
-0.022154801 0.428444 0.45129502
-0.022105999 -0.55510896 0.986417
-0.021774404 -0.50183302 0.75692201
-0.0214452 -0.52940798 0.93230397
-0.021030698 0.140028 0.47385502
-0.021023404 0.21764201 0.504291
-0.0209429 0.529199 0.72636098
-0.01730442 -0.5320347 0.93249482
-0.020862497 -0.57057101 0.86691499
-0.020704005 -0.542588 0.90661699
-0.017355047 -0.58103967 0.86614615
-0.019867603 0.83955598 0.73515403
-0.019068845 -0.55926955 0.88941562
-0.019792099 -0.140544 0.47275001
-0.0196018 0.47602001 0.45594501
-0.019587204 0.50214696 0.75132298
-0.019484803 -0.087245904 0.820939
-0.019477401 0.444013 0.45461398
-0.0194019 0.17848101 0.48824602
-0.010689832 -0.57522601 0.83609223
-0.0191531 0.28250602 0.52857798
-0.019055601 -0.39015901 0.540084
-0.018943403 -0.56051499 0.79839402
-0.018745899 -0.310523 0.49322301
-0.018597204 -0.36503601 0.52684599
-0.0185435 0.399878 0.48430097
-0.018436298 -0.253867 0.86310202
-0.018170502 -0.056334399 0.81458503
-0.0181574 -0.21787901 0.45384103
-0.0068437047 -0.58519399 0.81035811
-0.017619401 -0.20804399 0.84225094
-0.017548699 0.51966703 0.58346397
-0.017465301 -0.098160602 0.46612298
-0.017409701 -0.33590698 0.51122099
-0.017331701 -0.40513501 0.55194002
-0.017329201 0.87530798 0.76696098
-0.017270699 -0.53969103 0.96822399
-0.016929302 -0.52194196 0.94444698
-0.016697697 0.64983803 0.77417797
-0.016658701 -0.120333 0.82589698
-0.016609903 0.64773399 0.74580699
-0.016449001 -0.55445999 0.90584898
-0.016307503 0.12020601 0.80095398
-0.015321054 -0.53075069 0.94584161
-0.014939938 -0.58123374 0.86534035
-0.015983202 -0.0163763 0.80289799
-0.015917402 -0.41924399 0.56531
-0.015831999 -0.29083499 0.876876
-0.015588198 -0.57360399 0.82331902
-0.015489303 -0.28421101 0.47478902
-0.015461404 -0.165723 0.83363599
-0.015439101 -0.17591199 0.45963502
-0.015278503 0.87929899 0.73679298
-0.0077420808 -0.58416998 0.84609306
-0.015063901 -0.52675802 0.77357298
-0.014851801 0.066253804 0.79244202
-0.014554299 -0.54571402 0.96954495
-0.0067334622 -0.53664362 0.95786446
-0.014476299 0.50210798 0.75492501
-0.014229998 -0.58329499 0.88195997
-0.0141569 -0.54293901 0.781901
-0.014044702 -0.51437598 0.76508796
-0.013664298 0.73881602 0.80579001
-0.013652101 0.16547701 0.80321997
-0.013574101 -0.32649899 0.89406699
-0.013422899 0.35909301 0.518107
-0.013266802 -0.49120799 0.98738897
-0.013230301 0.42337501 0.48985404
-0.013213202 -0.495895 0.70404702
-0.012154404 -0.53722507 0.93443602
-0.0127597 0.0237622 0.79437798
-0.012510903 -0.362205 0.91368401
-0.012406103 -0.42886102 0.588009
-0.012357302 0.78760302 0.80265599
-0.0070118718 -0.58753824 0.8538723
-0.012013379 -0.58163434 0.86722076
-0.011740398 -0.47805598 0.68513799
-0.011645298 -0.020724 0.45625001
-0.011635602 -0.549815 0.77260298
-0.011628199 -0.544756 0.92376697
-0.011616103 -0.527762 0.98191804
-0.0062501952 -0.59644622 0.88321602
-0.0114283 -0.546345 0.97092003
-0.0112308 0.592902 0.74999398
-0.011162501 -0.53894502 0.76470298
-0.0095610768 -0.59077895 0.87068927
-0.0110186 0.27555901 0.80747199
-0.010974798 0.342473 0.81407499
-0.010816202 0.45648301 0.49355501
-0.010748003 0.224691 0.80268997
-0.010606501 -0.50474602 0.75415397
-0.010372501 0.69256401 0.80377603
-0.010261599 -0.132585 0.45774001
-0.010243203 -0.43634701 0.61663097
-0.010206699 -0.39380902 0.93292505
-0.010167599 0.59557402 0.77191299
-0.0028969832 -0.5916366 0.8924697
-0.0097847991 -0.56083399 0.78879398
-0.0096165985 -0.46021599 0.66704494
-0.0086335205 -0.58641124 0.8698169
-0.0093604997 0.91059899 0.76684797
-0.009336099 -0.42027 0.95249599
-0.0092459023 -0.58333802 0.80197603
-0.0091850013 -0.54949099 0.76952296
-0.0095960237 -0.57198757 0.90349174
-0.0090557002 -0.56730801 0.77964497
-0.0089947991 0.52750599 0.62975198
-0.0088948011 0.83172798 0.79725796
-0.0061836243 -0.58393979 0.85901242
-0.0086973011 0.501284 0.75874299
-0.0086388029 -0.44718799 0.64408499
-0.0084559023 -0.57548696 0.787058
-0.0084242001 0.33449 0.52677798
-0.0083852001 0.45059699 0.78776699
-0.0081267022 -0.52699697 0.75830197
-0.0080218986 0.55210298 0.75079596
-0.0079072006 0.74495596 0.70965099
-0.0077340975 -0.54404402 0.76138395
-0.0076779984 -0.50747699 0.988038
-0.0076219998 0.91436601 0.74018896
-0.0075805001 -0.48862597 0.72609299
-0.0074196011 0.79593003 0.70711499
-0.0071977004 -0.48237202 0.97851402
-0.0068197027 0.69479799 0.71582997
-0.0066612028 -0.49676999 0.73761398
-0.0065125003 0.40328702 0.80428493
-0.0061443001 0.52894503 0.681656
-0.0060672015 -0.076413795 0.45347697
-0.0060478039 -0.22393699 0.45098299
-0.0059590004 -0.37315601 0.52075297
-0.0059029013 -0.56567001 0.77524596
-0.0058322027 0.842062 0.708224
-0.0057424977 -0.5660395 0.87116277
-0.0056321993 -0.47659501 0.96657497
-0.0053396001 -0.55052203 0.77033794
-0.0051992014 -0.17663699 0.44871801
-0.0047665983 -0.597332 0.78255695
-0.0046959035 -0.58679795 0.82107097
-0.0035673194 -0.54112327 0.95677227
-0.0045593046 -0.39360401 0.53354502
-0.0043032989 0.87061095 0.79314697
-0.0042082034 0.52169603 0.73313999
-0.0041862018 0.55070502 0.77009898
-0.0041666999 -0.34535998 0.50529802
-0.0038176887 -0.54864901 0.94074315
-0.003847301 -0.53939098 0.75639296
0.0050727203 -0.56322992 0.93097663
-0.00289407 -0.54653519 0.76493621
-0.00088427588 -0.61509418 0.79288471
-0.0032230988 0.39818802 0.52291101
-0.0032059997 0.52755296 0.62891102
-0.0030864999 0.64374 0.72404701
-0.003081698 0.51014501 0.58843797
-0.0027754791 -0.59354025 0.87015247
0.00028336793 -0.56776816 0.86352819
-0.0028134026 -0.54281199 0.96082801
-0.0027890019 -0.473535 0.96673399
-0.0018924065 -0.58143932 0.77246124
-0.0027427003 -0.51395398 0.752554
-0.0024891011 0.64865798 0.79917395
-8.5681677e-08 -0.57048231 0.87463713
0.0017325953 -0.49271256 0.97850877
-0.0017430037 -0.60067797 0.80699199
-0.0016308017 0.529625 0.68359399
-0.0016235039 0.440568 0.52749997
-0.0015332997 -0.52077401 0.97301799
-0.001369901 0.88245004 0.71318597
-0.0013577007 -0.58813703 0.89773202
-0.0011186972 -0.56514502 0.77283996
-0.0003423132 -0.58355892 0.90723592
0.00082737207 -0.62548804 0.77512193
-0.00083829835 -0.538243 0.77413696
-0.00051400438 -0.584858 0.834324
-0.00020680204 -0.40709302 0.54640001
-0.00012630224 -0.55394602 0.93291098
-8.7298453e-05 -0.32099098 0.48758096
1.0199845e-05 0.332854 0.52291799
3.2201409e-05 0.00375027 0.45086104
0.0018919669 -0.59029913 0.84696603
0.00017359853 0.52261502 0.73509103
0.000241898 0.58909303 0.73405194
0.00043939799 -0.422979 0.56013101
0.00054910034 -0.45657298 0.97166699
0.0035968982 -0.58776069 0.8552264
0.001107499 0.038136598 0.44815701
0.0012939163 -0.59979093 0.87662739
0.0012586974 0.94379503 0.76743895
0.0013635978 0.55402201 0.73560303
0.0017436333 -0.60171586 0.76486534
0.0015317984 -0.602373 0.81712598
0.0016829967 0.90684301 0.79032302
0.0044011511 -0.5926013 0.86930054
0.0038412809 -0.54529649 0.94980222
0.0025290996 -0.64275002 0.78542697
0.0028358586 -0.62630647 0.7642374
0.0028045997 0.59607202 0.79316598
0.0028144009 -0.56389898 0.75577301
0.0028777979 0.94551396 0.74574894
0.0031410977 0.48077202 0.56328303
0.0032508969 -0.435835 0.58267897
0.0049786232 -0.51639062 0.96984154
0.0050261095 -0.60568517 0.88514036
0.012090297 -0.53074509 0.74899262
0.0042817816 -0.59851289 0.82686073
0.0051319934 -0.62354952 0.80785322
0.0054663494 -0.56658638 0.75697881
0.0040969998 0.083651692 0.44727403
0.0041725971 0.45129901 0.79649198
0.0065168999 -0.56643045 0.77780217
0.0048801005 -0.58522791 0.7699275
0.0047431998 -0.62126303 0.75840402
0.0067945868 -0.55227834 0.74781179
0.0075200573 -0.66070044 0.76762009
0.0076223686 -0.48876315 0.97677624
0.0054674 0.50531697 0.78574795
0.0056064017 -0.54471201 0.76506102
0.011465861 -0.59413171 0.85645092
0.0057051592 -0.59953773 0.87131482
0.005803898 0.91748703 0.72056997
0.0060063004 0.392378 0.53530496
0.0077395663 -0.66752821 0.77972388
0.0097118486 -0.56961703 0.86144161
0.0066597983 0.54858899 0.78715104
0.0091850683 -0.57278872 0.87357748
0.007005997 -0.44748297 0.60971802
0.0070840009 -0.60362798 0.761428
0.0073473975 -0.54865003 0.94819701
0.0073887967 -0.53296602 0.778162
0.0066006705 -0.53544402 0.77997196
0.009381501 -0.65546769 0.7585665
0.0075693019 -0.59296799 0.83941001
0.0082892776 -0.6562655 0.79309738
0.0083105974 -0.60349202 0.895028
0.0083787963 0.43613997 0.54479998
0.0087689981 -0.50609499 0.73065495
0.0090440698 -0.59068608 0.86490577
0.0086093433 -0.58043391 0.74649316
0.0089469999 0.13369501 0.45391899
0.010186207 -0.60644746 0.87571692
0.009200599 -0.51597804 0.96918195
0.0093370993 -0.62278003 0.75655293
0.0093932003 0.26058701 0.49491102
0.010972017 -0.60015982 0.86011487
0.0094980989 0.17563601 0.46504503
0.0095773991 -0.12469599 0.44505799
0.0096577443 -0.588045 0.85928887
0.0096565001 -0.326646 0.48688096
0.0096638985 0.219568 0.47957999
0.0096784979 -0.620992 0.82285798
0.011207176 -0.57320273 0.7401154
0.0099199004 0.94204402 0.78706002
0.011243679 -0.57923418 0.75018042
0.010193 -0.30043802 0.47213799
0.010561198 0.290535 0.504906
0.010692898 -0.51327097 0.74549794
0.010775799 -0.50202799 0.716654
0.010883098 -0.0569074 0.82027394
0.010931799 -0.49766299 0.67502797
0.011226898 -0.604182 0.76241797
0.011241499 -0.46252102 0.63503295
0.0113561 -0.084451601 0.82469898
0.011360999 -0.64314002 0.75429296
0.011585299 -0.63821501 0.81296301
0.012137843 -0.68331808 0.78071606
0.011746299 -0.51573396 0.69542301
0.011770599 -0.60531598 0.83970493
0.012564516 -0.59211463 0.74178129
0.011868199 -0.58788604 0.91529602
0.011929099 -0.47792599 0.656977
0.012900699 -0.66153163 0.80061835
0.012048598 -0.59750098 0.90117997
0.012013735 -0.5898419 0.77179641
0.013198381 -0.59720218 0.85201216
0.012490001 0.96750605 0.76698697
0.0126021 0.33327597 0.518736
0.0126899 -0.114537 0.828264
0.013753373 -0.57257318 0.86661023
0.013842605 -0.67906982 0.76539218
0.012899598 -0.35364398 0.50262797
0.012975199 -0.54347098 0.76533204
0.0131044 -0.48111802 0.97699898
0.0134409 -0.60794902 0.84987295
0.013604298 -0.158298 0.83428001
0.013633598 -0.56848401 0.93448097
0.013687199 -0.38096601 0.51742697
0.01390186 -0.60670221 0.8629595
0.014074899 0.96679902 0.751055
0.014230998 -0.62325001 0.75703901
0.0143383 -0.54522401 0.95233703
0.014382198 0.94708902 0.73061401
0.014506498 -0.66258401 0.75544399
0.014535798 -0.51496798 0.97036004
0.014638199 -0.058277704 0.447469
0.014728399 -0.54697001 0.74291998
0.014765 -0.0169542 0.810808
0.014719786 -0.60972357 0.72556829
0.014847901 0.025200902 0.802944
0.014850698 -0.17671199 0.43830299
0.0151868 -0.200415 0.84448993
0.015250199 -0.62152404 0.83203697
0.015269699 0.732135 0.82224399
0.016370362 -0.68749708 0.79173338
0.015665099 -0.234823 0.44762999
0.015864698 -0.39895901 0.53091097
0.017990978 -0.61276895 0.88172621
0.0160647 0.78126097 0.81993496
0.016354799 0.16633499 0.80844003
0.016476799 -0.55187303 0.77201301
0.017485423 -0.68910909 0.77191168
0.0167669 -0.64401299 0.753452
0.016793698 -0.24948201 0.86902899
0.017059499 0.68706101 0.818896
0.018259581 -0.6541369 0.8145268
0.0173034 -0.54507303 0.76696098
0.017391199 -0.56783301 0.76688695
0.017673999 -0.53981799 0.79727697
0.017673999 0.277551 0.81311893
0.017693499 0.122969 0.80597293
0.0177984 0.070616104 0.79962999
0.0178081 0.22388901 0.80918598
0.017825199 -0.525056 0.79865998
0.017939799 -0.58339697 0.75668502
0.017956479 -0.56720293 0.73483288
0.018521341 -0.61867541 0.84378636
0.018298198 -0.62565702 0.76208603
0.018322598 -0.52277303 0.795434
0.0183909 -0.27978399 0.883757
0.018410398 0.82715899 0.81299496
0.022911509 -0.60121763 0.71497434
0.0185665 0.39265999 0.53385198
0.01874825 -0.62507313 0.71816981
0.025466857 -0.68124914 0.75261694
0.018761499 0.96788102 0.78140599
0.0188591 -0.59777099 0.74191099
0.019007798 0.79426497 0.69240898
0.020572841 -0.69676393 0.78593236
0.019044399 0.74328303 0.69487202
0.021826256 -0.57433474 0.75107735
0.020133259 -0.61283642 0.86478376
0.019334599 -0.62636399 0.72090894
0.019514468 -0.59211987 0.76057792
0.0194126 0.84161597 0.69470596
0.019453999 -0.410961 0.54606098
0.019808741 -0.61314249 0.72606176
0.019507699 0.69278097 0.70339096
0.019602798 0.33433899 0.81708395
0.019690599 -0.31511399 0.90472001
0.020166099 -0.348647 0.92933398
0.020588992 -0.60844231 0.74472219
0.020251399 0.43629101 0.54529303
0.020855764 -0.57452339 0.77128363
0.023505962 -0.69571406 0.7756201
0.020863317 -0.55432308 0.77714807
0.020683 -0.61515701 0.73250604
0.020778099 -0.665878 0.75170094
0.020902399 0.47688499 0.56713903
0.020990198 -0.416242 0.962888
0.021070698 0.64537102 0.81392401
0.021095099 0.86641198 0.80810398
0.023103315 -0.69781595 0.79322743
0.021148698 0.64131898 0.71347696
0.024562925 -0.6470989 0.76123631
0.021346198 -0.56259 0.75848198
0.021497399 0.883569 0.701989
0.021551099 -0.57253098 0.78790599
0.021663198 0.50349998 0.60238999
0.023254873 -0.70791936 0.78500676
0.021861989 -0.60257411 0.73424989
0.022197114 -0.62799919 0.84608215
0.022089999 0.52523601 0.638623
0.022126498 -0.42607898 0.56095499
0.022131398 0.50675797 0.80135697
0.022263099 -0.38369399 0.94957
0.02293767 -0.59065694 0.74536002
0.0233064 -0.62189013 0.7360785
0.028093031 -0.69290751 0.80260664
0.022636199 -0.44892201 0.97474402
0.0226874 0.53056902 0.69168699
0.022728799 0.58694196 0.72536099
0.02459636 -0.66437566 0.82118428
0.022953099 0.595155 0.80724502
0.0231482 0.398049 0.81364399
0.0232799 0.450811 0.80531895
0.024485318 -0.70958346 0.77809674
0.023501799 0.55284399 0.727705
0.023667749 -0.61730868 0.76953018
0.023808999 0.96668899 0.73975998
0.026142843 -0.6326105 0.72574794
0.023867499 -0.61121202 0.73231792
0.023867499 0.54977101 0.801871
0.029175799 -0.68981802 0.75945014
0.024121098 0.90413004 0.80521399
0.024130899 -0.590029 0.77851403
0.024325998 0.52192199 0.72799003
0.025006298 -0.439244 0.58307797
0.025113599 0.91983497 0.71321297
0.025415899 -0.66641998 0.75317597
0.025664698 -0.60970503 0.88387901
0.0258378 -0.47858003 0.98051298
0.025962099 0.98618895 0.76783597
0.026858173 -0.62621766 0.72027892
0.026135299 -0.52658999 0.74806798
0.027717594 -0.63626653 0.73058158
0.026181599 -0.59048098 0.91364503
0.027396757 -0.70122361 0.77253085
0.026501 -0.51348299 0.73903096
0.027251558 -0.70571756 0.77183735
0.027249459 -0.64202327 0.71325356
0.027076498 -0.59765702 0.90158993
0.027191099 -0.542027 0.74181801
0.027220299 -0.62412101 0.72756797
0.027252 0.98496497 0.75840694
0.031168092 -0.7157675 0.77718884
0.031993702 -0.51563239 0.72306794
0.027890898 0.94085401 0.79979104
0.0281884 -0.57099801 0.93568099
0.028182276 -0.63584119 0.70901245
0.0284274 -0.51483202 0.97234899
0.028732155 -0.70725435 0.79550129
0.029363893 -0.61570621 0.86634904
0.028841898 -0.452786 0.60734296
0.029063798 -0.54783499 0.95738298
0.029214999 0.94925004 0.72550797
0.029619697 -0.56308496 0.73223799
0.03244064 -0.71852416 0.78641135
0.029800199 0.987535 0.77618498
0.033321515 -0.70707983 0.78162879
0.03023177 -0.63273603 0.85039997
0.031680766 -0.62236017 0.70381135
0.03279287 -0.51759923 0.80028027
0.034349766 -0.71987557 0.78106809
0.03367028 -0.59444118 0.71335149
0.034609511 -0.52031648 0.80304986
0.032118529 -0.66329986 0.83060819
0.034587711 -0.63729209 0.71967602
0.031904511 0.96761101 0.78971797
0.032080069 -0.53680199 0.80070996
0.036821328 -0.69282454 0.75723541
0.033016421 -0.468795 0.62846196
0.037840385 -0.69678843 0.76332676
0.034515712 -0.69446874 0.80649018
0.033435829 -0.56989598 0.78712094
0.033533357 -0.60866404 0.88710999
0.033652849 -0.58765399 0.77903503
0.033735748 -0.57341897 0.77274901
0.033799149 0.984999 0.75226194
0.033818658 -0.59383601 0.75931096
0.03384304 -0.51471901 0.71013397
0.034753311 -0.70439476 0.77915251
0.038765032 -0.61017942 0.70412171
0.034011289 -0.606408 0.77079898
0.03401373 -0.62663502 0.76508498
0.034398999 -0.61269403 0.73834801
0.034474589 -0.64759499 0.76175004
0.036945026 -0.70329148 0.76602143
0.034676969 -0.669402 0.75600702
0.034701359 -0.55170298 0.78238797
0.034776948 -0.48787701 0.64918798
0.034791578 -0.68491501 0.75324696
0.036904514 -0.63154459 0.7255711
0.036292166 -0.64176881 0.71814972
0.03718742 -0.6418159 0.72371387
0.03610488 0.9688893 0.73657805
0.035150021 -0.50759399 0.66897595
0.035680991 -0.64785737 0.70810783
0.035281699 -0.524441 0.69127494
0.039573781 -0.64516592 0.7025032
0.037820358 -0.63978601 0.71266818
0.037110887 -0.61382598 0.86958009
0.036600869 -0.51936698 0.73624599
0.036786981 -0.71595842 0.77654082
0.040184498 -0.62466997 0.69952792
0.039460715 0.98992074 0.77987921
0.038117558 -0.53836203 0.73527396
0.04184597 1.0002333 0.77188462
0.038317509 -0.63489604 0.85187799
0.039734494 -0.70865631 0.76924783
0.03873935 -0.55982 0.73288399
0.043817446 0.99854636 0.76317531
0.039252162 -0.66217023 0.83435577
0.040452424 -0.59112352 0.71328038
0.042188 -0.72089392 0.78673559
0.03711519 -0.71467781 0.79479879
0.040355418 -0.69041055 0.81163949
0.041906945 -0.63980496 0.71639317
0.04034625 -0.59212601 0.75614095
0.041355815 -0.55598056 0.77929032
0.040724158 -0.6108368 0.73499304
0.041162077 0.98671156 0.75112998
0.039091155 -0.63232374 0.70003587
0.047976557 -0.6855728 0.75352567
0.04642757 -0.67217422 0.75816685
0.046453971 -0.64653093 0.76189739
0.05084379 -0.697294 0.76146191
0.055145085 -0.6925962 0.75677669
0.054856561 -0.64782691 0.7055766
0.046356909 -0.64694899 0.70688599
0.050195284 -0.63377225 0.69953996
0.046356909 -0.63396502 0.85108
0.046586022 -0.61124259 0.87132001
0.047651339 -0.59311259 0.71256906
0.046356909 -0.53741598 0.73666394
0.046359349 -0.51927698 0.70732999
0.046359349 -0.518601 0.72302496
0.046361789 -0.58544999 0.91115797
0.046364218 -0.56856704 0.93323696
0.046364218 -0.545829 0.95506597
0.046364218 -0.51453203 0.97138602
0.046364218 -0.51306099 0.66491598
0.046364218 -0.49205002 0.64560598
0.046364218 -0.47740898 0.98123002
0.046364218 -0.47135201 0.62541199
0.046364218 -0.45566899 0.60605997
0.046364218 -0.45078 0.97709697
0.046364218 -0.41811001 0.96461701
0.046364218 -0.38616502 0.95197195
0.046364218 -0.34751099 0.92637801
0.046364218 -0.315249 0.90471298
0.046364218 -0.27859199 0.88417703
0.046364218 -0.24661699 0.86997098
0.046364218 -0.195426 0.84412396
0.046364218 -0.15536299 0.83236295
0.046364218 -0.111174 0.82758904
0.046364218 0.015771599 0.44412601
0.046364218 0.061925601 0.444875
0.046364218 0.073617704 0.80461895
0.046364218 0.124878 0.80973995
0.046364218 0.13274699 0.45171899
0.046364218 0.16719101 0.81366092
0.046364218 0.17578699 0.460154
0.046364218 0.22308399 0.81568199
0.046364218 0.22456899 0.47275501
0.046364218 0.264447 0.48668402
0.046364218 0.27954099 0.81876898
0.046364218 0.29606599 0.49816602
0.046364218 0.32830602 0.82020599
0.046364218 0.33561403 0.51305002
0.046364218 0.39125597 0.53263801
0.046364218 0.39293098 0.81657696
0.046364218 0.43392798 0.544761
0.046364218 0.44648302 0.80906701
0.046364218 0.47555101 0.57025498
0.046364218 0.49497101 0.61295396
0.046364218 0.50581402 0.80530697
0.046364218 0.51249099 0.64936399
0.046364218 0.51884001 0.72660297
0.046364218 0.52247101 0.69007999
0.046364218 0.54964 0.80675793
0.046364218 0.55016398 0.72534698
0.046364218 0.58421099 0.722314
0.046364218 0.59404999 0.81170499
0.046364218 0.64075106 0.70966995
0.046364218 0.64335501 0.818223
0.046364218 0.68424398 0.82304901
0.046364218 0.69255203 0.69987297
0.046364218 0.72885698 0.826572
0.046364218 0.74305099 0.69061899
0.046364218 0.77832705 0.82449204
0.046364218 0.79242206 0.68819302
0.046364218 0.82545 0.81695998
0.046364218 0.84009904 0.690853
0.046364218 0.864869 0.81180996
0.046364218 0.88313001 0.69897097
0.046364218 0.902964 0.80891597
0.046364218 0.92045403 0.71153301
0.046364218 0.94016898 0.80284202
0.046364218 0.95021302 0.72481
0.046364218 0.96727401 0.79141796
0.048713177 0.9979918 0.76258427
0.050815236 1.0005221 0.7721501
0.048087575 1.0012809 0.76904279
0.046364229 -0.44081903 0.584571
0.046364229 -0.42709801 0.56436902
0.046364229 -0.41377699 0.549375
0.046364229 -0.40293097 0.53338099
0.046364229 -0.38666198 0.51954603
0.046364229 -0.36035401 0.50483
0.046364229 -0.33291501 0.49010503
0.046364229 -0.30827001 0.47564501
0.046364229 -0.24014099 0.44449902
0.046364229 -0.175438 0.43344802
0.046364229 -0.116973 0.44260901
0.046364229 -0.0829373 0.82492101
0.046364229 -0.056807399 0.82184196
0.046364229 -0.0292242 0.44421601
0.046364229 -0.0141817 0.81583798
0.046364229 0.0267078 0.80978101
0.046366658 -0.593858 0.90156502
0.046366658 -0.52943802 0.68858796
0.046366658 -0.52039796 0.80425298
0.046366658 -0.51604801 0.80250001
0.046369098 -0.60403597 0.89028996
0.045801863 -0.57101655 0.76918775
0.046369098 -0.53606498 0.80202001
0.046369098 -0.521918 0.73577297
0.046233609 -0.71998864 0.78161466
0.052206837 -0.71044648 0.79828787
0.046668541 -0.70494646 0.76535922
0.046638727 -0.66043746 0.834957
0.050929382 -0.64104533 0.71673989
0.046371538 -0.64093804 0.72145498
0.046371538 -0.638098 0.71238202
0.046371538 -0.63095999 0.72410297
0.046371538 -0.62498599 0.76372498
0.046371538 -0.604204 0.76970398
0.051520612 -0.59218001 0.75563878
0.048546772 -0.58105272 0.78152192
0.046371538 -0.55862498 0.73457098
0.052938648 -0.56653738 0.77314174
0.053405166 -0.62475795 0.69973183
0.054363556 -0.61015558 0.70429951
0.05427812 -0.64555007 0.70343554
0.052975859 -0.70659781 0.76726323
0.055592582 -0.71579903 0.77636826
0.056161642 -0.64710927 0.7086184
0.053538889 -0.63236982 0.72475904
0.05487014 0.98747575 0.75249279
0.052352898 -0.61126798 0.73474199
0.05609221 -0.64192611 0.71815765
0.054543167 -0.63994265 0.71257466
0.056949712 -0.6415531 0.72429359
0.052684233 -0.68608385 0.81499135
0.058033243 -0.72010893 0.78144383
0.05502861 -0.72067851 0.78769851
0.052708872 -0.59157699 0.71309549
0.053349506 -0.66124177 0.83509403
0.053989097 -0.55982 0.73288399
0.054410897 -0.63489604 0.85187799
0.054610901 -0.53836203 0.73527396
0.055213198 0.98813003 0.78038901
0.055421386 -0.61387074 0.86954963
0.059055276 -0.70506215 0.7814008
0.055769101 -0.51705098 0.723167
0.0561276 -0.51936698 0.73624599
0.058568247 -0.63682866 0.72000045
0.057773016 -0.51732463 0.80080891
0.0574468 -0.524441 0.69127494
0.0575784 -0.50759399 0.66897595
0.057661299 0.96777201 0.736054
0.062424354 -0.70849359 0.79632932
0.059032872 -0.69039619 0.80906689
0.057951499 -0.48787701 0.64918798
0.057953902 -0.68491501 0.75324696
0.058036797 -0.55170298 0.78238797
0.057917766 -0.70220912 0.76735032
0.058071002 -0.669402 0.75600702
0.058270901 -0.64759499 0.76175004
0.058346499 -0.61269403 0.73834801
0.059314795 -0.52033311 0.80284202
0.058734201 -0.62663502 0.76508498
0.058736697 -0.606408 0.77079898
0.058885399 -0.51471901 0.71013397
0.058926899 -0.59383601 0.75931096
0.059004899 -0.57341897 0.77274901
0.060070474 -0.58020455 0.78267044
0.059195101 -0.60866404 0.88710999
0.064942166 -0.6955834 0.77058393
0.059712 -0.468795 0.62846196
0.061075114 -0.71548951 0.77757519
0.059618663 -0.59424716 0.71365857
0.060587417 -0.66120154 0.8322292
0.060660601 -0.53680199 0.80070996
0.060823902 0.96761101 0.78971797
0.058965445 -0.62522864 0.70213974
0.065900013 -0.62664622 0.71959269
0.06515386 -0.68965226 0.76114398
0.062496699 -0.63273603 0.85039997
0.06479571 -0.63650435 0.73044622
0.063163437 -0.71674889 0.78426194
0.064521112 -0.63514024 0.70897037
0.062928297 0.987535 0.77618498
0.063108698 -0.56308496 0.73223799
0.062789395 -0.61526889 0.86719382
0.063513502 0.94925004 0.72550797
0.063664705 -0.54783499 0.95738298
0.065481156 -0.70113862 0.77265286
0.063886598 -0.452786 0.60734296
0.066502169 -0.63358724 0.72562331
0.065533474 -0.70607597 0.77187902
0.065133438 -0.69138074 0.80301231
0.064301103 -0.51483202 0.97234899
0.064540103 -0.57099801 0.93568099
0.0648375 0.94085401 0.79979104
0.0649717 -0.513744 0.72452003
0.065990053 -0.71278656 0.77765763
0.065459378 -0.61345232 0.70851475
0.065476403 0.98496497 0.75840694
0.068312749 -0.61556023 0.73087317
0.065537401 -0.542027 0.74181801
0.066617131 -0.64086974 0.71385217
0.065651998 -0.59765702 0.90158993
0.069805399 -0.62119639 0.73645931
0.066227399 -0.51348299 0.73903096
0.066546902 -0.59048098 0.91364503
0.0665932 -0.52658999 0.74806798
0.066698 -0.68172997 0.75260097
0.066766299 0.98618895 0.76783597
0.066890702 -0.47858003 0.98051298
0.067063794 -0.60970503 0.88387901
0.067214996 -0.55379999 0.77900398
0.067332 -0.66641998 0.75317597
0.072315164 -0.60692048 0.74608594
0.067614898 0.91983497 0.71321297
0.068938509 -0.68073601 0.80451351
0.067722201 -0.439244 0.58307797
0.068983391 -0.70883733 0.78426725
0.071506739 -0.57350278 0.771936
0.068039201 -0.64697301 0.76127899
0.068139099 -0.59263599 0.76059401
0.068250835 -0.65741241 0.82639724
0.068402499 0.52192199 0.72799003
0.06878686 -0.70505643 0.77750242
0.068607301 0.90413004 0.80521399
0.068614602 -0.590029 0.77851403
0.068580687 -0.62826842 0.76638961
0.068860903 0.54977101 0.801871
0.068919398 0.96668899 0.73975998
0.070356056 -0.59892756 0.7163412
0.069226697 0.55284399 0.727705
0.069855452 -0.69804108 0.79283768
0.069448598 0.450811 0.80531895
0.069524094 -0.64589798 0.83380699
0.069580197 0.398049 0.81364399
0.075002044 -0.61340803 0.72555107
0.069775298 0.595155 0.80724502
0.070286393 -0.58030027 0.75092953
0.069999598 0.58694196 0.72536099
0.070041098 0.53056902 0.69168699
0.070092298 -0.44892201 0.97474402
0.070357315 -0.60982406 0.72942477
0.070465401 -0.38369399 0.94957
0.072262183 -0.69670504 0.78397214
0.070597 0.50675797 0.80135697
0.070601895 -0.42607898 0.56095499
0.0706385 0.52523601 0.638623
0.070772603 -0.62756598 0.84610897
0.071037062 -0.58287996 0.74728239
0.072510108 -0.61276865 0.86539876
0.071065202 0.50349998 0.60238999
0.071191996 -0.57253098 0.78790599
0.071231 0.883569 0.701989
0.071396798 -0.56259 0.75850701
0.071499303 -0.64574403 0.75812399
0.071579695 0.64131898 0.71347696
0.071633399 0.86641198 0.80810398
0.071657702 0.64537102 0.81392401
0.071738198 -0.416242 0.962888
0.071825996 0.47688499 0.56713903
0.074814826 -0.56751114 0.73472416
0.071969897 -0.665878 0.75170094
0.072064996 -0.61515701 0.73250604
0.072064996 -0.55476302 0.776631
0.074409544 -0.62491041 0.71870005
0.072477102 0.43629101 0.54529303
0.072562397 -0.348647 0.92933398
0.0730379 -0.31511399 0.90472001
0.073125705 0.33433899 0.81708395
0.073220797 0.69278097 0.70339096
0.073274404 -0.410961 0.54606098
0.073315904 0.84161597 0.69470596
0.07485985 -0.61257154 0.88161367
0.073393896 -0.59133202 0.76064003
0.073411003 -0.62636399 0.72090894
0.073571898 -0.561239 0.75690496
0.073684096 0.74328303 0.69487202
0.073720604 0.79426497 0.69240898
0.073888898 -0.59777099 0.74191099
0.073966898 0.96788102 0.78140599
0.075167283 -0.68919158 0.77191341
0.077253766 -0.67825401 0.76162213
0.074120499 -0.65952104 0.81123704
0.074161999 0.39265999 0.53385198
0.074166901 -0.52277303 0.795434
0.074155405 -0.61852473 0.84438795
0.076352239 -0.68762827 0.79164481
0.074317999 0.82715899 0.81299496
0.074337497 -0.27978399 0.883757
0.074235149 -0.61977702 0.76517224
0.074788697 -0.525056 0.79865998
0.074805699 -0.58339697 0.75668502
0.074920297 0.22388901 0.80918598
0.074930102 0.070616104 0.79962999
0.075034901 0.122969 0.80597293
0.0750544 0.277551 0.81311893
0.075061701 -0.53981799 0.79727697
0.075354397 -0.56783503 0.7669
0.075439699 -0.54507303 0.76696098
0.075668901 0.68706101 0.818896
0.075934701 -0.24948201 0.86902899
0.07788913 -0.63050884 0.75515282
0.080522463 -0.57090414 0.73949367
0.079328306 -0.67367685 0.79333442
0.079292044 -0.58843309 0.7444188
0.076263897 -0.55187303 0.77201301
0.076373599 0.16633499 0.80844003
0.0766638 0.78126097 0.81993496
0.076863699 -0.39895901 0.53091097
0.077044204 -0.23473302 0.44762999
0.077458702 0.732135 0.82224399
0.0774782 -0.62152404 0.83203697
0.077541597 -0.200415 0.84448993
0.077906609 -0.60866266 0.72534484
0.080337107 -0.6839174 0.78041929
0.077880502 0.025200902 0.802944
0.077963501 -0.0169542 0.810808
0.077985398 -0.17644501 0.43830299
0.080621034 -0.53113544 0.74905819
0.082123309 -0.57594347 0.74127316
0.078090198 -0.058277704 0.447469
0.078192696 -0.51496798 0.97036004
0.082242176 -0.65994149 0.75851011
0.078346297 0.94708902 0.73061401
0.078390196 -0.54522401 0.95233703
0.078755304 -0.60688901 0.86153054
0.078653499 0.96679902 0.751055
0.079041198 -0.38096601 0.51742697
0.079535626 -0.56834674 0.93447632
0.079124101 -0.158298 0.83428001
0.079287499 -0.60794902 0.84987295
0.078907974 -0.57222682 0.86545223
0.079434179 -0.59749222 0.85192001
0.079978101 -0.54367781 0.76487982
0.079623997 -0.48111802 0.97699898
0.082186222 -0.5875203 0.74404985
0.079828799 -0.35364398 0.50262797
0.079831302 -0.679663 0.76960403
0.080038503 -0.114537 0.828264
0.0801263 0.33327597 0.518736
0.080238499 0.96750605 0.76698697
0.086702392 -0.58570445 0.76988846
0.086482562 -0.60381395 0.87773365
0.080679797 -0.59750098 0.90117997
0.082629763 -0.65341449 0.80113888
0.080799296 -0.47792599 0.656977
0.080860302 -0.58788604 0.91529602
0.087753147 -0.56566083 0.75753808
0.0809578 -0.60531598 0.83970493
0.080982193 -0.51573396 0.69542301
0.081143096 -0.63821501 0.81296301
0.082969382 -0.59027898 0.85921568
0.0813675 -0.64314002 0.75429296
0.081372298 -0.084451601 0.82469898
0.081486903 -0.46252102 0.63503295
0.081501596 -0.604182 0.76241797
0.081796601 -0.49766299 0.67502797
0.082385883 -0.60060698 0.86173338
0.081845395 -0.0569074 0.82027394
0.083881676 -0.56934619 0.86131537
0.081952699 -0.50202799 0.716654
0.082035601 -0.51327097 0.74549794
0.082167298 0.290535 0.504906
0.082535401 -0.30043802 0.47213799
0.083677359 -0.59083343 0.86451703
0.083266452 -0.5728519 0.87345874
0.082808599 0.94204402 0.78706002
0.089061759 -0.60789847 0.81847054
0.083064601 0.219568 0.47957999
0.083071902 -0.326646 0.48688096
0.083230399 0.17563601 0.46504503
0.083335295 0.26058701 0.49491102
0.083352298 -0.124497 0.44505799
0.083391294 -0.62278003 0.75655293
0.085277334 -0.5166195 0.96876156
0.083756827 -0.56761384 0.77918851
0.083781496 0.13369501 0.45391899
0.083959498 -0.50609499 0.73065495
0.084349602 0.43613997 0.54479998
0.084417902 -0.60349202 0.895028
0.084629998 -0.48657298 0.97688496
0.088359758 -0.59836072 0.82736784
0.084778801 -0.53296602 0.778162
0.085308157 -0.5346958 0.78061956
0.085161299 -0.65965247 0.766285
0.08470352 -0.66861129 0.77944303
0.085159197 -0.59296799 0.83941001
0.087261781 -0.54519039 0.94989353
0.085644394 -0.60362798 0.761428
0.085722402 -0.44748297 0.60971802
0.088380948 -0.59877944 0.87265015
0.088528566 -0.59177172 0.8460629
0.086068705 0.54858899 0.78715104
0.08698529 -0.58944517 0.8556298
0.086434498 -0.63439101 0.80306602
0.086722203 0.392378 0.53530496
0.086924598 0.91748703 0.72056997
0.087249286 -0.59120345 0.86890966
0.087978184 -0.60572857 0.8854863
0.087261096 0.50531697 0.78574795
0.087473199 -0.49111599 0.97730905
0.087741397 -0.55760598 0.75124294
0.0879853 -0.62126303 0.75840402
0.088555902 0.45129901 0.79649198
0.088631496 0.083651692 0.44727403
0.08950185 -0.61271715 0.81168187
0.088955797 -0.5334 0.75351304
0.091505185 -0.57107627 0.87489849
0.092398204 -0.51739097 0.97283942
0.089477599 -0.435835 0.58267897
0.089587301 0.48077202 0.56328303
0.089850605 0.94551396 0.74574894
0.089913994 -0.56389898 0.75577301
0.089923799 0.59607202 0.79316598
0.089939699 -0.60619503 0.76306468
0.09062469 -0.62662524 0.7671333
0.090739042 -0.63821369 0.786623
0.0902237 -0.57585502 0.91740501
0.095698625 -0.59353316 0.8703227
0.090694293 -0.54500902 0.95175695
0.090889402 -0.492484 0.97866696
0.091598637 -0.58706033 0.85532433
0.091045499 0.90684301 0.79032302
0.09318506 -0.56759536 0.86407483
0.091364898 0.55402201 0.73560303
0.091469698 0.94379503 0.76743895
0.091620892 0.038136598 0.44815701
0.088599488 -0.59092569 0.85112572
0.092179298 -0.45657298 0.97166699
0.092289098 -0.422979 0.56013101
0.092486605 0.58909303 0.73405194
0.092554793 0.52261502 0.73509103
0.092696294 0.00375027 0.45086104
0.092718199 0.332854 0.52291799
0.092815697 -0.32099098 0.48758096
0.092854798 -0.55394602 0.93291098
0.092935197 -0.40709302 0.54640001
0.093242496 -0.584858 0.834324
0.093566798 -0.538243 0.77413696
0.094396271 -0.61306781 0.77804929
0.093805701 -0.58518702 0.90391296
0.094223693 -0.54690325 0.76495022
0.0938472 -0.56514502 0.77283996
0.093998402 -0.60918802 0.79713303
0.0940862 -0.58813703 0.89773202
0.0940983 0.88245004 0.71318597
0.093538597 -0.5874427 0.77081543
0.094351903 0.440568 0.52749997
0.094359294 0.529625 0.68359399
0.094712801 -0.49935299 0.98186201
0.09581054 -0.54993826 0.93897957
0.0952176 0.64865798 0.79917395
0.095471203 -0.51395398 0.752554
0.095517501 -0.473535 0.96673399
0.095541902 -0.54281199 0.96082801
0.097041287 -0.5935607 0.88841861
0.0958101 0.51014501 0.58843797
0.095815003 0.64374 0.72404701
0.095934495 0.52755296 0.62891102
0.095951498 0.39818802 0.52291101
0.096229501 -0.598903 0.79415798
0.096456297 -0.56105399 0.91983396
0.097944513 -0.58412063 0.85835046
0.096575797 -0.53939098 0.75639296
0.096895203 -0.34535998 0.50529802
0.096914701 0.55070502 0.77009898
0.096936598 0.52169603 0.73313999
0.098296732 -0.53750348 0.95730293
0.097031698 0.87061095 0.79314697
0.097287796 -0.39360401 0.53354502
0.097312197 -0.54229999 0.958251
0.098458812 -0.56605542 0.87118691
0.097424299 -0.58679795 0.82107097
0.097468197 -0.59621602 0.876315
0.098068103 -0.55052203 0.77033794
0.098160699 -0.176184 0.44871801
0.10010488 -0.58739126 0.85354865
0.098360702 -0.47659501 0.96657497
0.098560601 0.842062 0.708224
0.0986313 -0.56567001 0.77524596
0.098687395 -0.37315601 0.52075297
0.098719105 -0.59679401 0.88287002
0.098731294 -0.22357701 0.45098299
0.098862998 -0.076378003 0.45347697
0.098872699 0.52894503 0.681656
0.10263363 -0.58217746 0.8032456
0.099240899 0.40328702 0.80428493
0.099389702 -0.49676999 0.73761398
0.099548206 0.69479799 0.71582997
0.10379902 -0.58233511 0.84796673
0.099926099 -0.48237202 0.97851402
0.100148 0.79593003 0.70711499
0.1003089 -0.48862597 0.72609299
0.10035039 0.91436601 0.74018896
0.1004065 -0.50747699 0.988038
0.1004626 -0.54404402 0.76138395
0.10313163 -0.58942533 0.86922914
0.1006357 0.74495596 0.70965099
0.1007503 0.55210298 0.75079596
0.1008551 -0.52699697 0.75830197
0.1011136 0.45059699 0.78776699
0.1011526 0.33449 0.52677798
0.1011843 -0.57548696 0.787058
0.10104935 -0.57457519 0.90349531
0.10136721 -0.44718799 0.64408499
0.1014257 0.501284 0.75874299
0.1016232 0.83172798 0.79725796
0.10172319 0.52750599 0.62975198
0.1017842 -0.56730801 0.77964497
0.10369064 -0.54963881 0.77064764
0.10206459 -0.42027 0.95249599
0.102089 0.91059899 0.76684797
0.102345 -0.46021599 0.66704494
0.10418596 -0.53810692 0.93414074
0.1025133 -0.56083399 0.78879398
0.1026303 -0.57617199 0.83552098
0.10392363 -0.57489783 0.89130372
0.1028961 0.59557402 0.77191299
0.1029351 -0.39380902 0.93292505
0.1029717 -0.43634701 0.61663097
0.1031009 0.69256401 0.80377603
0.103335 -0.50474602 0.75415397
0.1034716 -0.13218099 0.45774001
0.1034764 0.224691 0.80268997
0.1035447 0.45648301 0.49355501
0.10486836 -0.58196908 0.8671459
0.1037032 0.342473 0.81407499
0.1037471 0.27555901 0.80747199
0.103891 -0.53894502 0.76470298
0.1039592 0.592902 0.74999398
0.1041567 -0.546345 0.97092003
0.1043445 -0.527762 0.98191804
0.1043567 -0.544756 0.92376697
0.1043738 -0.020724 0.45625001
0.1044689 -0.47805598 0.68513799
0.1050858 0.78760302 0.80265599
0.1051345 -0.42886102 0.588009
0.1052394 -0.362205 0.91368401
0.1054881 0.0237622 0.79437798
0.105671 -0.58744997 0.87368894
0.1059416 -0.495895 0.70404702
0.1059587 0.42337501 0.48985404
0.1059953 -0.49120799 0.98738897
0.1061513 0.35909301 0.518107
0.1063025 -0.32649899 0.89406699
0.1063806 0.16547701 0.80321997
0.1063928 0.73881602 0.80579001
0.10825064 -0.58073556 0.86559904
0.1067732 -0.51437598 0.76508796
0.1068853 -0.54293901 0.781901
0.1069585 -0.58329499 0.88195997
0.10818966 -0.53061652 0.94557273
0.1072047 0.50210798 0.75492501
0.10922013 -0.5423063 0.97062689
0.1072828 -0.54571402 0.96954495
0.1075803 0.066253804 0.79244202
0.1077924 -0.52675802 0.77357298
0.108007 0.87929899 0.73679298
0.1081606 -0.284159 0.47478902
0.1081899 -0.165723 0.83363599
0.1083167 -0.57360399 0.82331902
0.1084727 -0.17546 0.45961702
0.1085605 -0.29083499 0.876876
0.1086458 -0.41924399 0.56531
0.1087116 -0.0163763 0.80289799
0.109036 0.12020601 0.80095398
0.1091774 -0.55445999 0.90584898
0.1093383 0.64773399 0.74580699
0.1093871 -0.120333 0.82589698
0.1094261 0.64983803 0.77417797
0.10965779 -0.52194196 0.94444698
0.1097675 -0.53224397 0.93484199
0.1100577 0.87530798 0.76696098
0.1100601 -0.40513501 0.55194002
0.1101381 -0.33590698 0.51122099
0.1102771 0.51966703 0.58346397
0.11181515 -0.55919302 0.88946384
0.1103478 -0.20804399 0.84225094
0.11068679 -0.56771803 0.811454
0.11068679 -0.097899303 0.46612298
0.1108648 -0.217466 0.45384103
0.1108989 -0.056334399 0.81458503
0.11308223 -0.53348291 0.91874021
0.1111647 -0.253867 0.86310202
0.111272 0.399878 0.48430097
0.1113256 -0.36503601 0.52684599
0.1114744 -0.310523 0.49322301
0.1116719 -0.56051499 0.79839402
0.111784 -0.39015901 0.540084
0.1118816 0.28250602 0.52857798
0.1119255 -0.56860101 0.83895898
0.1121303 0.17848101 0.48824602
0.1122059 0.444013 0.45461398
0.1122132 -0.087245904 0.820939
0.1123156 0.50214696 0.75132298
0.1123303 0.47602001 0.45594501
0.112596 0.83955598 0.73515403
0.11244618 -0.57565612 0.86567414
0.113052 -0.14018899 0.47269499
0.1135474 -0.54374391 0.90468395
0.1136714 0.529199 0.72636098
0.1137518 0.21764201 0.504291
